ply
format ascii 1.0
comment Created by Open3D
element vertex 823
property double x
property double y
property double z
property double nx
property double ny
property double nz
element face 0
property list uchar uint vertex_indices
end_header
0.114923 -0.150927 0.274523 0.53932 0.0608742 -0.839898
0.0465681 -0.203607 -0.0956538 0.253221 0.135901 -0.957815
0.112993 0.138913 0.154836 0.98633 -0.144495 -0.0792059
0.119209 -0.0209603 -0.0184149 0.992331 0.00777915 0.12336
-0.0748398 -0.22281 -0.0659911 -0.0757716 -0.937734 -0.33899
-0.104991 -0.0915047 -0.133329 -0.152551 0.0455011 0.987248
0.15033 -0.0287872 -0.11657 -0.442996 0.109474 -0.889814
0.113171 -0.20873 0.219168 -0.0898598 -0.916077 0.390804
0.0791752 -0.187994 -0.132102 0.050559 0.0752745 -0.99588
0.114346 -0.0319298 0.209337 0.964103 0.0243437 -0.264411
0.148151 0.181289 -0.134057 -0.134737 0.302682 -0.94352
-0.207833 0.0102173 -0.157571 0.241717 0.0279406 -0.969944
0.123946 -0.218553 0.0716694 -0.328391 -0.939197 -0.10034
-0.0984178 0.238627 -0.0205348 -0.0951959 -0.974703 0.202218
0.0790013 -0.0176179 0.131944 0.998847 -0.0278348 0.0391199
-0.0496938 0.172183 -0.106752 0.094337 -0.437325 0.894342
0.0920164 -0.199584 0.035877 0.698907 0.682389 0.214183
0.164508 -0.115446 -0.121208 -0.463059 -0.113086 -0.879084
-0.119637 -0.177604 -0.119592 0.188363 -0.390996 -0.900912
0.155973 -0.223937 0.0426729 -0.2734 -0.959033 -0.0742237
0.308714 0.195957 -0.129012 -0.0772963 -0.668065 -0.740078
0.0660895 0.188497 -0.00570242 0.903997 -0.42693 0.022813
0.317428 0.193929 -0.123612 -0.0853643 -0.334801 -0.938414
-0.147437 0.0591126 -0.135958 -0.188957 -0.0310026 0.981496
0.453075 -0.21187 0.267521 0.0108593 -0.608461 -0.793509
0.135082 -0.20609 0.256831 -0.13854 -0.382613 0.913463
0.140647 -0.210385 0.142592 -0.394024 -0.910723 -0.12381
0.092112 0.0132751 0.260076 0.745855 -0.0413402 -0.664824
0.241871 -0.186917 -0.140306 -0.0483015 0.0511679 -0.997521
0.0754096 0.00929866 0.0930684 0.99646 0.0349904 0.0764381
0.088076 0.0129273 0.206652 0.990831 -0.063484 -0.11926
0.445094 0.194869 -0.141189 -0.0930802 -0.111806 -0.989361
0.160931 0.0607226 0.258956 0.778179 0.0869899 -0.621989
-0.206328 -0.115637 -0.146223 0.217012 -0.092013 -0.971823
0.0965601 -0.0483342 -0.0890146 0.945548 0.183073 -0.269116
0.140489 0.183724 0.211709 -0.621861 0.717271 0.314342
0.0627453 -0.225993 0.201124 -0.233439 0.971197 0.047772
-0.0259836 0.185621 -0.134925 -0.0278958 0.448295 -0.89345
0.0855088 0.117795 0.182972 0.992924 -0.00747116 -0.118514
0.136233 0.214724 0.0042062 0.348361 -0.928364 0.129557
0.138595 -0.209076 0.16447 -0.665374 -0.72567 -0.175158
-0.216792 -0.00569421 -0.160073 0.245945 -0.0141937 -0.96918
0.065152 0.188761 -0.12482 0.15414 0.123199 -0.980338
0.117599 -0.109902 0.278078 0.455225 0.122131 -0.88196
-0.231552 0.0365932 -0.159802 0.233352 0.0439058 -0.971401
-0.0519255 0.229911 0.115719 0.126983 0.98839 -0.0834259
0.475356 -0.222523 0.269374 0.0108593 -0.608461 -0.793509
0.109385 0.057363 0.0376236 0.997667 -0.068201 0.00304176
0.0870063 -0.120159 -0.000372052 0.986818 0.0154703 0.161093
0.0808119 0.0221993 0.126811 0.999471 0.0142472 0.0292484
0.0933525 0.168932 -0.124196 -0.0851436 0.100302 -0.991307
0.148871 -0.200591 0.112957 -0.626501 -0.776943 -0.0621029
0.492297 -0.177756 -0.159624 3.13135e-07 0.983716 0.17973
0.000276417 -0.0407248 -0.130328 -0.0792511 0.00205058 0.996853
-0.108919 -0.0614185 -0.131638 -0.159934 0.00121797 0.987127
0.163781 0.0918737 0.278489 0.188994 -0.0648822 -0.979832
0.467833 -0.188207 -0.145047 3.13135e-07 0.983716 0.17973
0.396657 -0.19896 -0.149932 3.13135e-07 0.983716 0.17973
0.0531919 -0.239151 0.203329 -0.241421 0.969894 0.0319684
0.365211 0.199365 0.249248 0.0232585 0.0830163 -0.996277
0.167716 -0.195705 -0.0543662 -0.351331 -0.903042 -0.247148
0.142536 0.211525 0.128957 0.619306 -0.783406 0.0522982
0.12216 -0.141941 -0.0411872 0.954029 0.292813 0.0639394
0.152218 0.208382 0.0492933 0.527113 -0.840204 0.127314
0.11708 0.0532245 0.188865 0.993795 0.0272569 -0.107839
0.219352 0.174563 -0.108092 -0.213692 0.568226 -0.794641
0.171882 0.0328302 -0.127526 -0.350389 -0.0513426 -0.935196
0.0947263 -0.00176 0.0722443 0.998956 0.037283 0.0264148
0.298546 -0.187783 -0.113669 -0.0306045 0.809307 -0.586588
0.144414 -0.199197 -0.131807 -0.0208417 0.990807 0.133665
-0.00142866 -0.172035 -0.124714 -0.011759 0.0777447 0.996904
-0.00901184 0.0580409 -0.12383 -0.0762927 -0.00802159 0.997053
0.0815418 0.216836 0.0802796 0.683838 -0.725844 0.074273
0.0831257 -0.0703492 -0.092407 0.791621 0.0878822 -0.604659
0.0752832 0.0950482 0.0720219 0.984493 -0.00721343 0.175277
0.0818876 0.138571 0.0658283 0.969777 -0.173835 0.171216
-0.085553 -0.133187 -0.12378 -0.08267 0.0869108 0.99278
-0.0630286 -0.251947 0.162809 -0.0497153 0.997978 0.0395963
0.125172 0.218422 0.0513816 -0.389985 0.908074 -0.152685
0.45179 -0.184536 -0.155211 3.13135e-07 0.983716 0.17973
0.135523 -0.22272 0.11651 -0.445288 -0.89522 -0.0173167
0.0211256 0.177504 -0.128506 0.012427 0.0509376 -0.998625
0.137847 0.205466 -0.063722 0.206883 -0.967747 0.143754
0.384004 -0.19405 -0.124455 3.13135e-07 0.983716 0.17973
0.152451 -0.212376 -0.0068878 0.372341 0.918004 0.136497
0.359598 -0.20201 0.253364 0.00355504 -0.700671 -0.713476
-0.212992 0.0375861 -0.14663 0.238696 0.037589 -0.970367
-0.0552858 0.150296 -0.114162 -0.00367605 -0.233017 0.972466
0.111178 0.0940758 -0.0810601 0.960786 0.0789665 -0.265808
0.159022 0.200812 0.256503 0.0695786 -0.474743 -0.87737
0.466953 -0.202459 0.258873 0.0108813 -0.601597 -0.798725
0.123951 0.22036 0.17866 -0.0109926 0.988295 -0.15216
0.112205 0.00087267 -0.119592 -0.121858 -0.00570123 -0.992531
0.0682882 0.0985551 -0.123188 -0.160339 0.0320304 0.986542
0.118612 -0.0757442 -0.0876137 0.899273 -0.00287688 0.437378
-0.0764387 -0.220774 0.0770475 -0.376508 0.921295 0.0972527
-0.116395 -0.0137409 -0.132686 -0.168339 -0.0148845 0.985617
0.0848123 -0.0871534 0.207184 0.990576 0.107441 -0.0849501
0.478616 -0.199139 -0.143425 3.13135e-07 0.983716 0.17973
0.0814386 0.00894749 0.175868 0.998153 -0.0540896 -0.0276722
0.127505 -0.101855 0.264072 0.437674 0.172462 -0.882439
0.0501752 0.184721 -0.103078 0.0782941 0.156886 -0.984508
0.116029 0.0199846 0.163168 0.994681 -0.0379719 -0.0957518
0.0802734 -0.0937726 0.0621846 0.99229 -0.0655342 0.105195
-0.0531416 0.0409464 -0.129315 -0.106809 0.00520387 0.994266
-0.00733295 0.209353 -0.103601 -0.0973009 0.526979 -0.84429
-0.0422782 -0.208775 -0.0921775 -0.216658 0.84451 0.489757
-0.0819039 0.242872 0.0898367 0.227218 0.970318 -0.0827988
0.126338 0.184424 0.0403652 0.827001 -0.541668 0.150548
0.0834654 -0.118999 0.0359201 0.996177 -0.0363437 0.0794445
0.0952505 0.0663812 -0.0920015 0.878966 0.387108 -0.278507
0.0968376 -0.0443362 0.0196675 0.989887 -0.12974 -0.0573676
0.0942287 0.152288 0.0683987 0.984676 -0.164092 0.0590431
0.0972418 0.173152 -0.0852009 0.689113 -0.335967 -0.642066
0.352467 0.182341 -0.128404 -0.0964058 -0.136195 -0.98598
0.321126 -0.228205 0.266241 -0.000530987 -0.537306 -0.843387
0.121934 -0.162775 -0.124645 -0.337035 -0.0667524 -0.939123
-0.106334 0.1974 -0.112262 0.24125 0.561036 -0.791857
0.119096 0.056775 -0.0973083 0.811102 0.226478 0.539278
0.0920287 -0.0170451 0.240328 0.872269 -0.0496532 -0.486499
0.272153 0.178001 -0.114143 0.0344536 0.937795 0.345477
0.158902 0.195305 0.00501599 0.927642 -0.35548 0.114515
-0.0643337 0.230247 0.201361 0.0822881 0.995876 -0.0382031
0.483605 0.198388 0.283647 0.03348 -0.0398903 -0.998643
0.149838 -0.187993 -0.0598428 0.265095 0.917443 0.296686
0.443177 -0.204274 -0.156158 3.13135e-07 0.983716 0.17973
0.105049 -0.187442 -0.0937193 0.377504 0.891547 -0.250271
0.128436 0.101159 0.282355 0.478411 -0.0661592 -0.87564
0.486475 0.189933 -0.142555 -0.0930802 -0.111806 -0.989361
0.432023 -0.216788 0.260312 0.0108593 -0.608461 -0.793509
0.0327992 0.216595 0.199723 0.194581 0.956444 -0.217607
-0.0739992 -0.223181 0.115409 -0.0345208 0.998099 0.0510576
0.395535 -0.200413 0.267885 0.0108813 -0.601597 -0.798725
0.11779 -0.118602 0.127029 0.988309 0.043996 -0.145978
0.160316 0.220209 0.252626 -0.0479567 0.878534 0.475267
0.109653 -0.067839 0.0391429 0.983168 -0.0954645 0.155777
0.124824 -0.0776411 0.220338 0.933896 0.0899579 -0.346044
-0.0233216 0.00391311 -0.129054 -0.0819412 -0.00962585 0.996591
0.0840144 -0.0459642 -0.127853 -0.0864793 0.0279632 0.995861
-0.000119278 -0.0746405 -0.113855 -0.0759048 0.0284768 0.996708
0.0167786 -0.183757 -0.113389 0.037643 -0.12868 -0.990972
0.220856 -0.205575 0.268445 0.082302 0.599556 -0.79609
0.473198 -0.18552 -0.147442 3.13135e-07 0.983716 0.17973
0.0417958 -0.146204 -0.119068 -0.0923188 -0.0449339 0.994715
0.110677 -0.0830944 -0.00397868 0.993631 0.0638272 0.0928596
0.119107 0.154664 0.12549 0.947852 -0.317064 0.0323687
0.108713 0.0296673 0.17666 0.999335 -0.0302512 -0.0203465
0.130585 0.172836 0.00564674 0.880943 -0.419342 0.219297
0.0198467 0.114657 -0.11519 -0.100892 -0.0333227 0.994339
0.206785 -0.220317 0.271295 0.0619631 0.748443 -0.660299
0.12794 -0.15987 -0.089277 0.776999 0.492116 0.392549
0.081102 0.12436 0.0551118 0.995494 -0.00229948 0.0947995
-0.157378 0.192345 -0.134779 0.18497 0.215108 -0.958913
-0.191189 0.20204 -0.129225 0.166656 0.201692 -0.965166
0.119937 0.039058 0.204593 0.976861 0.0532993 -0.207128
0.116364 0.044434 -0.0405748 0.984704 -0.0390329 0.16981
0.0883516 0.116412 -0.0965991 0.49673 -0.0863167 -0.863602
0.116443 0.0569868 -0.122925 0.229006 -0.0622575 0.971432
-0.0259409 -0.186447 -0.131673 -0.0225023 -0.126805 -0.991672
0.115454 0.100963 0.16739 0.994842 -0.0848438 -0.0555912
0.0972744 -0.160273 -0.0463761 0.981369 0.18499 0.0518911
0.324454 -0.229264 0.262035 -0.000530987 -0.537306 -0.843387
-0.0824159 0.222228 0.00697445 -0.211327 -0.966207 0.147594
-0.0388555 -0.109201 -0.117958 -0.0856089 0.029544 0.995891
0.0887125 -0.131661 0.251757 0.881624 0.104923 -0.460141
0.0855133 0.17554 0.0626485 0.993077 -0.0943473 0.0699769
0.0470171 0.235083 0.189278 0.176098 0.967735 -0.180219
0.114187 -0.0904108 0.0961778 0.989139 -0.0966452 -0.11074
0.0345219 -0.094144 -0.116106 -0.118589 0.0323071 0.992418
0.0833285 -0.000187162 -0.0571887 0.985991 -0.145499 -0.0815572
0.270351 0.183078 0.262017 0.0651052 -0.387876 -0.919409
0.161464 -0.163704 -0.126683 -0.335439 -0.627477 -0.702676
-0.00300833 -0.0512354 -0.125176 -0.0792511 0.00205058 0.996853
-0.100759 -0.190308 -0.120555 -0.0687905 0.60726 0.791519
0.117075 -0.009362 0.125105 0.995852 0.0771294 -0.0482739
-0.0497237 0.217388 -0.0734068 0.0598956 0.934166 -0.351776
-0.0582381 0.104265 -0.120443 -0.105145 -0.12447 0.986637
-0.237449 0.204638 -0.147152 0.18294 0.192251 -0.964143
0.142905 -0.230701 0.177026 -0.196017 -0.95946 -0.202521
0.0845717 0.11055 -0.0199782 0.985314 -0.117363 0.124024
-0.0506583 0.238924 0.200042 0.0890589 0.994828 -0.048849
0.118543 0.196993 0.252728 0.00753218 -0.601732 -0.798663
-0.14181 0.169346 -0.130379 -0.187122 -0.21318 0.958926
-0.110545 0.0338568 -0.128444 -0.142671 0.00418541 0.989761
-0.0891492 0.212063 -0.0691398 -0.227216 -0.897181 0.378734
0.145253 -0.0189367 -0.107812 -0.641452 0.0999797 -0.760621
0.120416 0.0354383 0.251801 -0.676575 0.0678997 0.733236
0.104652 -0.103336 -0.0759638 0.9944 0.105681 0.000395708
0.0900956 0.00968717 0.102142 0.998354 -0.0509119 0.0263973
0.067536 -0.0243156 -0.116135 -0.207913 -0.103248 0.972683
0.117258 0.0958333 -0.0670193 0.997001 -0.0430316 0.0643197
-0.193801 -0.0973557 -0.142046 0.246244 -0.0703566 -0.966651
0.120385 0.146729 0.269225 0.529961 -0.0638963 -0.845612
0.12128 -0.0629259 0.123418 0.997081 0.068466 -0.0337971
-0.0632862 0.128642 -0.121411 -0.039723 -0.103967 0.993787
0.165694 0.208261 0.169833 0.109922 0.993071 -0.041561
-0.231741 -0.00989369 -0.16406 0.249323 -0.00614425 -0.968401
0.131289 -0.184914 0.0494445 0.85151 0.517967 0.0814887
-0.0977474 -0.213355 -0.0843506 -0.0210043 -0.90967 -0.4148
-0.19875 -0.0784571 -0.148816 -0.242263 0.0659274 0.967968
0.132987 -0.197529 -0.00675533 -0.497662 -0.844105 -0.199548
0.431229 -0.213373 0.252219 0.0108813 -0.601597 -0.798725
0.11097 -0.126115 0.0385552 0.99674 0.0769849 -0.024138
0.31699 0.176074 -0.126033 -0.0853643 -0.334801 -0.938414
-0.072378 -0.0321474 -0.129495 -0.0893163 -0.0152979 0.995886
0.106288 0.0214796 0.0272347 0.99854 0.0298886 -0.0449859
0.432214 0.176847 -0.144895 -0.0930802 -0.111806 -0.989361
0.128084 -0.0240605 -0.0850669 0.8547 -0.166621 0.491656
-0.132325 -0.159033 -0.136541 -0.177663 0.149676 0.972642
-0.134244 0.21493 -0.117412 0.205475 0.698682 -0.685291
-0.0836345 0.211897 -0.0719648 -0.227301 -0.893836 0.386513
0.120462 0.196092 0.224966 0.613669 0.761466 -0.208757
0.101434 0.177117 0.000833899 0.949247 -0.256468 0.182084
0.300049 -0.195421 -0.143656 -0.0463336 0.684661 -0.727387
-0.0801747 0.17806 -0.114179 -0.0790297 -0.571065 0.817092
0.129332 -0.191407 -0.0775367 -0.370395 -0.920891 -0.121519
0.127814 0.192007 0.0333629 0.72764 -0.676801 0.111713
0.476317 0.191431 -0.134384 -0.0930802 -0.111806 -0.989361
0.0869397 0.0511016 -0.110815 -0.238716 0.00663464 0.971067
0.190651 0.19562 -0.0886443 -0.176235 0.953695 -0.243737
0.191898 -0.197246 0.252218 0.108965 0.473899 -0.873812
0.357212 -0.227065 0.258785 0.000151254 -0.632821 -0.774298
0.0902163 -0.174934 0.197834 0.979673 -0.0915365 0.178498
0.350994 -0.214878 0.276564 0.00355504 -0.700671 -0.713476
-0.065758 -0.206653 -0.128322 -0.0588721 0.689461 0.721927
0.0832093 0.0939426 0.225658 0.989981 0.0845249 -0.113103
-0.104951 -0.117557 -0.127774 -0.150908 0.067418 0.986246
0.0867727 0.215935 0.243277 0.14461 0.942415 0.301565
0.333306 -0.188655 -0.124647 -0.0417387 0.94754 -0.316899
0.118991 0.0417402 0.279577 0.397185 0.0718609 -0.914921
-0.013352 0.123215 -0.117938 0.0316748 0.0681301 -0.997174
0.114455 0.0135377 0.0866766 0.991402 0.0794602 0.103961
0.13052 0.0801378 -0.110644 0.603681 0.00804525 0.797185
0.0903565 0.167995 -0.0976624 -0.527995 0.174787 0.831066
0.14832 -0.0814474 -0.108036 -0.581287 -0.0184211 -0.81349
0.486864 0.19253 -0.164205 -0.0930802 -0.111806 -0.989361
0.0952503 0.12988 0.0368248 0.983527 -0.0953277 0.15358
-0.206946 -0.204162 -0.124366 0.213492 -0.149858 -0.965383
-0.0601988 -0.0886668 -0.13089 -0.0945719 0.0571879 0.993874
0.104004 -0.184551 -0.0628424 -0.611935 -0.779609 -0.133214
0.0258751 0.188058 -0.0956134 0.0861057 0.09562 -0.991687
0.0851865 -0.219857 0.246846 0.44653 0.547182 -0.707957
-0.131896 0.000110438 -0.137264 -0.200174 -0.0185998 0.979584
0.0909723 -0.154198 -0.0924909 0.816725 0.109816 -0.56648
-0.0780924 -0.174167 -0.137558 0.0925274 -0.256903 -0.961998
0.119044 0.166403 0.157928 0.925748 -0.377075 0.0283608
0.104404 0.213899 0.267023 0.0802215 0.781702 0.618471
0.152494 -0.19511 0.0558233 -0.561321 -0.823442 -0.0828442
-0.084689 0.0735349 -0.136982 -0.119399 -0.0461543 0.991773
0.314481 -0.207528 0.257445 -0.000530987 -0.537306 -0.843387
-0.178366 0.10629 -0.14638 -0.207727 -0.0826929 0.974685
0.11899 0.216583 0.062375 0.377591 -0.923423 0.0686651
0.161811 -0.00754357 0.268491 0.297186 -0.0543059 -0.953274
0.155357 -0.178217 0.243668 -0.474531 -0.589926 0.653305
-0.0707688 -0.247599 0.0988295 -0.0345208 0.998099 0.0510576
0.094599 0.0500517 0.271107 0.508682 0.0474096 -0.859648
0.0824986 0.0162052 0.193067 0.981383 -0.0581001 -0.18306
0.0861363 -0.0186967 0.258484 0.86243 0.0352032 -0.504951
-0.0152569 -0.175028 -0.116746 -0.00360584 -0.141145 -0.989982
0.210896 0.201931 -0.115647 -0.118046 0.961898 -0.246611
0.0231483 0.222825 0.22656 0.149178 0.986451 0.0682624
0.113691 -0.0533287 0.17322 0.998048 0.00833832 0.0618985
-0.08407 -0.238541 0.001878 0.14345 -0.981931 -0.123428
0.110136 0.126029 -0.0573095 0.979227 -0.20272 -0.0044536
0.187466 -0.178435 -0.110156 0.260449 0.903619 0.340058
-0.0784645 -0.227782 0.0951569 -0.041295 0.997855 0.05079
0.0785178 0.0349789 0.0668476 0.998 -0.0272308 0.0570454
0.23328 0.212132 0.248602 0.147569 -0.246053 -0.957957
0.0975784 0.0885532 -0.100591 0.810279 0.0234328 -0.585575
0.125623 -0.207701 -0.0974181 0.00311885 -0.994318 -0.106405
0.0417988 -0.231746 0.213567 -0.208336 0.972747 0.101777
-0.230042 0.149178 -0.147147 0.194132 0.178542 -0.964591
0.136638 0.214057 0.132056 -0.494702 0.854755 -0.157047
0.0889355 0.055239 0.118727 0.999474 0.0323315 0.00241642
0.116075 -0.118678 0.132294 0.985958 0.0516828 -0.158793
0.100409 -0.134365 -0.0955503 0.370767 -0.285537 -0.883742
-0.083843 -0.231594 0.128659 -0.065488 0.99689 0.0438283
-0.173321 -0.0818886 -0.143964 -0.224647 0.0620442 0.972463
0.0068076 -0.148281 -0.118146 -0.0601341 -0.0249098 0.997879
0.0861896 -0.158893 0.0963481 0.980782 0.194959 -0.00762175
0.377641 0.199549 -0.135379 -0.0930802 -0.111806 -0.989361
0.0850381 0.0298149 0.230001 0.979271 0.102923 -0.174455
-0.0215695 0.224945 0.186333 0.173374 0.968365 -0.179475
0.132881 0.208002 0.277513 0.0711493 -0.571584 -0.817453
-0.036976 0.229501 0.19046 0.109281 0.991808 -0.0661405
0.115765 -0.168534 0.146392 0.949639 0.311048 0.0378692
0.119372 0.154188 0.205313 0.963512 -0.231459 -0.13443
0.151695 0.112405 0.259665 0.555899 -0.134187 -0.820348
-0.211905 -0.177986 -0.137114 -0.220318 0.126389 0.967205
0.120927 -0.117289 0.156413 0.998563 0.0305463 -0.0440342
0.0821006 0.165758 -0.120393 -0.0835661 0.0300138 0.99605
-0.0649464 -0.047832 -0.129598 -0.0973131 0.00561303 0.995238
0.0948803 0.155423 0.198613 0.995818 -0.0630705 -0.0660961
0.123271 0.195215 -0.0328045 -0.667281 0.727694 -0.158739
0.0817193 -0.188003 0.0261145 0.915016 0.391749 0.0963281
-0.219741 -0.175191 -0.145148 -0.220318 0.126389 0.967205
0.0963963 0.217021 0.236059 -0.0069151 0.951744 0.306815
0.115347 0.0732747 0.0981208 0.997116 0.0601648 0.0462638
0.107075 0.228838 0.179727 0.119495 0.985886 -0.117261
0.142405 0.0434022 -0.122276 -0.512362 -0.0638634 -0.856392
0.0441928 -0.190496 -0.134772 0.144142 0.102178 -0.984268
0.0911289 0.197404 0.054918 0.743406 -0.620265 0.25024
-0.0978802 0.157394 -0.118746 -0.189151 -0.369331 0.909844
0.150466 -0.21248 -0.0425 -0.387207 -0.901418 -0.193691
0.0872464 -0.191044 -0.0758584 -0.235594 0.928596 0.286714
-0.200251 0.0289059 -0.15813 0.247863 0.0468769 -0.96766
-0.0644855 0.210294 -0.065313 -0.00379398 -0.922509 0.385957
0.183536 0.223737 0.256666 -0.120325 0.882314 0.455021
0.250755 -0.228785 0.271856 0.0476868 0.981007 -0.18802
0.0661203 0.124542 -0.116842 -0.142215 0.0587366 0.988092
0.0810887 -0.0344527 0.135234 0.999722 0.0234515 0.00240473
-0.188332 -0.0290752 -0.154642 -0.237094 0.0181853 0.971316
0.117454 -0.214496 -0.0327856 0.458788 0.882383 0.104467
0.117011 -0.0595238 0.0785128 0.987362 -0.143476 -0.0673184
0.082634 0.0644074 -0.000635869 0.993361 -0.0615346 0.0972018
0.0857215 0.062266 0.152629 0.991862 0.0265529 -0.124516
0.0924086 -0.179314 -0.116409 0.172856 0.0888755 -0.980929
0.157657 0.0231207 0.27755 0.283512 0.043089 -0.958
0.0893703 0.130161 0.0679454 0.987048 -0.0732096 0.142747
0.370685 0.213338 0.247786 0.0232585 0.0830163 -0.996277
0.136394 -0.232091 0.236607 0.0265231 -0.971496 0.235566
0.149286 -0.192112 -0.081469 0.142332 0.918947 0.367802
0.084535 0.190838 0.104867 0.91395 -0.398555 -0.076483
0.0976979 0.174834 0.261373 0.839745 -0.0807559 -0.536942
0.149568 0.0172184 0.254462 0.678043 0.0563381 -0.73286
0.112366 -0.153944 -0.07584 0.829215 0.479243 -0.287626
-0.124087 0.124029 -0.127714 -0.175661 -0.125149 0.976463
0.10641 -0.0677363 0.269192 0.497308 0.0259959 -0.867185
-0.0469161 -0.182897 -0.123608 0.0250883 -0.418274 -0.907975
0.12789 -0.0845398 -0.10988 -0.397925 -0.147696 -0.905451
-0.192291 0.0957402 -0.150477 -0.227114 -0.0862706 0.97004
0.135149 0.210417 0.142268 -0.425515 0.858023 -0.287634
0.0747439 0.086566 -0.11242 -0.234794 -0.0161357 0.971911
0.145587 0.187514 0.0173037 0.920483 -0.364119 0.141872
0.054399 -0.0591882 -0.113419 0.202247 -0.0468727 -0.978212
0.486288 -0.204719 -0.153582 3.13135e-07 0.983716 0.17973
0.138059 -0.0592098 0.269659 0.370396 -0.0146727 -0.928758
0.0611911 -0.0619923 -0.1266 0.173855 0.0358433 -0.984119
0.177397 -0.195284 0.248735 0.23558 0.479303 -0.845441
-0.0830765 -0.228744 -0.0388883 0.0940056 -0.963795 -0.249524
0.396621 -0.216858 0.248548 0.0108813 -0.601597 -0.798725
0.0804911 -0.146003 0.0346529 0.975523 0.21307 -0.054371
-0.0972041 0.232677 0.0540824 -0.444113 -0.892104 0.0831493
-0.0270525 0.0864907 -0.121418 -0.0790519 -0.0534722 0.995435
0.082041 -0.0407495 0.160135 0.9968 0.056674 0.0563676
0.112576 0.103356 0.0809131 0.996478 -0.0196925 0.0815116
0.0777361 0.117511 0.131532 0.991474 -0.0780569 -0.104338
-0.025453 0.0284572 -0.129281 -0.0899199 -0.00959262 0.995903
0.0939655 0.019734 -0.0313877 0.992283 0.0411325 0.11697
0.0992341 -0.174892 0.246444 0.844745 -0.0335653 -0.534115
0.112799 -0.0984596 -0.10281 -0.362784 0.00425564 -0.931863
0.282287 -0.216392 0.240555 0.0363222 -0.532673 -0.845541
0.10997 -0.0232925 -0.12319 -0.15461 0.193219 -0.968897
-0.0680641 -0.24204 0.0365142 0.105619 -0.989512 -0.0985445
0.290296 -0.217052 0.247416 0.0273113 -0.523711 -0.851458
0.0485504 -0.188528 -0.125556 0.140134 0.0432878 -0.989186
-0.213922 0.157327 -0.148299 0.194132 0.178542 -0.964591
0.0738014 -0.0921697 0.0481036 0.988813 -0.0683301 0.132587
0.0867977 0.0676011 -0.0269992 0.998501 -0.0532501 0.0126649
0.0710026 -0.151442 -0.117319 -0.248986 -0.0178494 0.968343
-0.10009 0.23391 0.0336392 -0.346751 -0.933326 0.0930969
-0.0112061 0.170479 -0.11469 0.0435014 -0.200373 0.978753
0.0944817 -0.213663 0.108066 0.72547 0.688112 -0.013973
0.0956469 0.12032 0.246115 0.850666 -0.142997 -0.505885
0.0820867 0.221295 0.22996 0.195669 0.976465 0.0907178
0.151316 -0.184778 0.245711 -0.474531 -0.589926 0.653305
0.155149 0.201289 -0.0805305 0.262727 -0.953218 0.149497
0.350809 0.21543 0.260347 0.0181102 0.15224 -0.988178
0.133315 0.193551 0.162932 0.878166 -0.459594 0.132659
0.145837 -0.0287221 -0.116225 -0.442996 0.109474 -0.889814
0.160786 -0.150023 0.272505 0.137165 0.0150952 -0.990433
-0.0746419 0.232685 0.0623905 0.411978 0.907282 -0.0843406
0.113626 -0.00634385 0.00676919 0.998573 0.051327 0.0147468
-0.0292616 -0.145248 -0.121134 -0.0125081 0.0830467 0.996467
0.227159 -0.18137 -0.128194 0.177844 0.889805 0.420261
0.105229 -0.0566529 -0.0507048 0.993424 0.112059 -0.0234889
-0.0128903 0.195247 -0.112187 -0.0783162 0.483911 -0.871606
-0.230712 -0.169406 -0.154063 0.217685 -0.12245 -0.968308
0.135192 -0.189404 0.0543664 0.667186 0.743107 0.0515135
0.0866871 -0.0203311 -0.0138337 0.995206 0.0974717 -0.00795876
-0.175032 0.155823 -0.127951 -0.163622 -0.213427 0.96316
0.261927 -0.192307 -0.132096 0.0157024 0.787203 -0.616494
0.0102078 -0.241609 0.193573 -0.188388 0.951791 0.242084
0.101362 -0.187681 0.0181968 0.818121 0.574644 0.0214953
-0.00279945 0.088212 -0.122363 -0.0557168 -0.0562485 0.996861
0.162224 -0.206005 0.242952 -0.440964 -0.575107 0.68906
-0.224771 0.205289 -0.129532 0.174528 0.194649 -0.965221
0.116796 0.128579 0.107122 0.996081 -0.0397268 -0.0790223
0.232343 0.189303 0.263696 0.052471 -0.209668 -0.976364
0.159576 -0.100093 0.259447 0.474616 0.0771302 -0.876807
-0.193999 -0.0672642 -0.149376 -0.238229 0.053688 0.969724
0.235214 0.188306 -0.135326 -0.11694 0.308399 -0.944042
0.251289 -0.196231 0.247784 0.119753 0.398906 -0.909139
0.230377 -0.188341 0.252171 0.0629038 0.530257 -0.8455
-0.0824489 0.227771 -0.047521 -0.0360315 -0.967127 0.251727
0.100364 0.205433 0.116173 0.511308 -0.852907 -0.105419
-0.0683328 -0.196142 -0.0921979 0.0626289 -0.78743 -0.613214
0.0381064 0.144269 -0.119492 -0.151443 -0.0584892 0.986734
-0.180889 0.14347 -0.138915 -0.149072 -0.172997 0.973576
0.0849983 0.137883 0.0277723 0.995099 -0.0576427 0.0803509
0.321683 -0.199524 -0.123164 -0.0321865 0.777858 -0.627615
0.0197427 -0.190548 -0.136647 -0.0411468 -0.0357379 -0.998514
0.430605 0.197785 -0.146788 -0.0930802 -0.111806 -0.989361
0.371371 0.192087 0.2817 0.0232585 0.0830163 -0.996277
0.163567 0.19376 -0.0545302 0.885157 -0.423641 0.192417
0.00741494 0.0634741 -0.123907 -0.124967 -0.00842061 0.992125
0.235732 0.224528 0.267124 0.0904556 -0.375738 -0.922301
0.0489006 -0.229896 0.210893 -0.207419 0.971885 0.111426
0.287049 0.197638 -0.136914 -0.0578464 -0.647592 -0.759788
0.139572 -0.201605 -0.00636486 -0.497662 -0.844105 -0.199548
-0.214306 0.0954754 -0.146937 0.205187 0.126432 -0.970522
0.0949979 -0.0110418 0.163185 0.997672 -0.0681019 -0.00364845
0.107694 -0.214855 0.0469234 -0.450822 -0.866784 -0.21318
0.198858 0.204169 -0.117534 -0.098198 0.970258 -0.221261
0.113997 0.0613749 0.140382 0.991109 0.0452387 -0.125127
0.0773312 0.0432674 -0.00448445 0.993094 -0.0711247 0.093306
-0.0586225 0.201754 -0.124835 0.0372533 0.620311 -0.783471
-0.0333216 0.0484268 -0.122623 -0.105916 -0.00979569 0.994327
-0.0486366 0.222642 0.157494 0.122386 0.989105 -0.081812
0.213118 0.180589 -0.117986 -0.249715 0.61895 -0.744677
0.082216 -0.106819 0.114645 0.997919 0.0640189 -0.00763238
0.0839739 0.00838689 0.0190858 0.99942 0.0325374 -0.0100846
0.085844 -0.0626694 -0.100377 -0.58927 0.239175 0.771723
0.0907924 0.0729461 0.24402 0.950213 -0.00377325 -0.311579
-0.0812874 -0.223395 0.0074244 0.099211 -0.988995 -0.109755
0.107714 0.00793118 -0.054679 0.98476 -0.119976 0.125911
0.140869 0.219877 0.149749 -0.25583 0.960734 -0.107429
0.39549 0.191591 0.264381 0.0443826 0.0130272 -0.99893
-0.218268 0.175656 -0.129864 -0.17242 -0.196989 0.965125
0.0884112 0.0829996 -0.0520449 0.968488 -0.236029 -0.079503
0.121766 0.161151 -0.0843577 0.875376 -0.189377 -0.444807
0.345524 0.221263 0.269428 0.0181102 0.15224 -0.988178
0.103678 0.119593 0.220004 0.954681 -0.116729 -0.273786
0.0992069 0.20039 -0.126802 -0.114498 0.504919 -0.855539
0.0458138 -0.208471 -0.109439 0.253221 0.135901 -0.957815
0.115504 -0.15097 0.00503548 0.972462 0.19124 0.133209
0.0853983 -0.08594 0.238129 0.961153 0.114916 -0.250958
0.0305159 0.0388073 -0.11547 -0.157623 -0.0139146 0.987401
0.117006 -0.0303617 0.0543175 0.996408 0.049681 0.0685798
0.133717 0.0985361 -0.111488 0.425547 0.0837791 0.90105
0.12793 -0.172816 -0.11286 -0.499477 -0.614511 -0.610655
0.146486 0.0191825 -0.115635 -0.455809 -0.0855952 -0.885952
0.488396 -0.216429 0.264984 0.0108593 -0.608461 -0.793509
0.0811885 0.182343 0.164929 0.995041 -0.096197 0.0252782
0.126523 -0.223639 0.143488 -0.370986 -0.917414 -0.143951
0.0769058 0.00736078 0.133606 0.999569 0.0181297 -0.0230738
0.0836743 -0.118508 0.0914102 0.996699 0.0678633 -0.0445641
0.248468 -0.228108 0.247084 0.108662 0.920039 -0.376457
0.0839313 -0.215464 0.251956 0.442285 0.416949 -0.794064
0.0874258 -0.0425366 0.0377127 0.993751 -0.00557275 0.111482
0.0949479 -0.213915 0.0996314 0.805354 0.592627 -0.0140786
-0.19065 -0.166931 -0.147803 -0.226633 0.135654 0.964487
0.146979 0.180949 0.255004 -0.170039 0.300976 0.93835
-0.20268 0.0429168 -0.14863 -0.231986 -0.0332005 0.972152
0.100297 -0.0358872 0.269296 -0.617976 0.0194193 0.785957
-0.236917 0.109743 -0.157143 0.18542 0.121947 -0.975063
-0.0316122 0.0567625 -0.124044 -0.108899 -0.0110129 0.993992
0.084948 0.121713 0.114832 0.987209 -0.123223 -0.101167
0.154915 0.174602 -0.119015 -0.190024 0.434029 -0.88063
0.0336271 0.0177402 -0.118471 -0.146573 -0.00305838 0.989195
0.0878581 0.141183 0.0951766 0.982692 -0.185241 -0.00160508
-0.0725264 -0.238545 0.168688 -0.0664922 0.995407 0.0688687
0.121244 -0.13077 0.0146986 0.979892 0.188219 0.0662177
0.0911224 0.11833 0.265678 0.814816 -0.159197 -0.557433
0.385981 0.201319 -0.133454 -0.0930802 -0.111806 -0.989361
0.116969 0.0522933 -0.0555959 0.994259 -0.0105794 0.106471
0.0969515 0.0425329 -0.102822 0.976886 0.190216 0.0975277
-0.157643 -0.20629 -0.111845 0.199694 -0.463003 -0.863568
-0.00685948 0.180021 -0.122333 -0.0738588 0.340869 -0.937205
-0.0757015 0.212043 0.00222137 -0.325285 -0.929685 0.172843
0.124653 0.0297367 -0.116306 -0.467679 -0.0951796 -0.878759
0.0888073 -0.0650619 -0.0411732 0.988323 0.146686 0.0412494
0.0808435 -0.0235439 0.000669378 0.996961 0.0778927 0.00130211
0.0855299 0.12853 0.162526 0.994063 -0.108776 -0.00265812
0.122569 0.143085 0.0343888 0.923655 -0.263739 0.278036
-0.226864 -0.0777262 -0.155028 0.263762 -0.0528443 -0.963139
0.0149539 0.0148339 -0.116549 -0.131534 -0.0202903 0.991104
0.123044 -0.1792 0.146824 0.945902 0.321688 0.0422636
0.0824734 -0.0697374 0.137263 0.993567 0.105541 -0.0410638
-0.197045 0.0728833 -0.146252 -0.222204 -0.0571949 0.973321
0.285954 -0.200132 0.273523 0.0316415 -0.229817 -0.972719
0.128397 -0.0730366 -0.0569392 0.986012 0.154108 0.0634844
0.0700765 0.137185 -0.118855 -0.118549 -0.00015581 0.992948
0.123859 0.0917596 0.225816 0.9242 0.214427 -0.31603
0.119138 -0.111461 0.230971 0.95672 0.0135033 -0.290697
0.117166 -0.00833747 0.186512 0.990855 -0.121533 -0.0586216
0.173584 -0.192153 -0.0988978 0.142645 0.959501 0.242922
-0.128515 0.190858 -0.104579 0.265518 0.536043 -0.801348
-0.191325 0.0385499 -0.150065 -0.233397 -0.0320144 0.971854
0.161878 0.0826084 -0.131654 -0.50361 -0.00165349 -0.86393
0.172464 -0.0810816 0.270137 0.241286 0.00381819 -0.970447
-0.0606932 -0.235177 0.193137 -0.0745719 0.994886 0.0681234
0.417085 -0.212437 0.259134 0.0108813 -0.601597 -0.798725
0.169286 -0.22109 0.180915 -0.27251 0.961904 0.0219055
0.146472 -0.17395 0.275367 0.339042 0.250862 -0.906708
0.0526213 -0.136163 -0.106017 0.269848 0.0405172 -0.96205
0.415883 -0.197975 -0.131405 3.13135e-07 0.983716 0.17973
0.0951011 -0.124793 -0.116169 0.113701 0.0208875 -0.993295
0.393618 -0.223657 0.270095 0.0108593 -0.608461 -0.793509
0.00515347 -0.238451 0.204568 -0.202404 0.95629 0.211049
0.136255 0.202027 -0.131299 -0.221089 0.794506 -0.56558
0.109204 0.0442728 0.266163 0.526747 0.0470576 -0.848719
0.154648 -0.206881 0.0159719 0.389012 0.913685 0.117682
0.231194 0.201975 -0.117173 -0.0265721 0.987701 -0.154077
0.0994341 -0.0446729 0.0584299 0.99999 0.00360596 -0.0025938
0.0869205 -0.18881 0.154251 0.980842 0.129677 0.14537
0.121845 0.186476 0.276975 0.0037074 -0.41191 -0.911217
-0.00713245 0.240837 0.176565 0.176556 0.962904 -0.20407
0.116459 -0.103487 0.0474772 0.998998 0.0195113 0.0402756
0.246377 -0.211752 -0.12128 0.0302155 0.999542 0.00190714
0.102129 -0.0374147 0.265774 0.606653 -0.135027 -0.783416
0.425255 0.198311 0.270231 0.0443826 0.0130272 -0.99893
0.49582 0.206054 0.277945 0.0443826 0.0130272 -0.99893
0.168216 -0.180012 0.264298 0.123529 0.290295 -0.948931
0.395651 0.221544 0.261766 0.0443826 0.0130272 -0.99893
0.16537 -0.209986 0.282867 -0.0514451 -0.479174 0.876211
0.091665 0.214196 0.191684 0.078123 0.965731 -0.247509
-0.0426912 -0.0521162 -0.124181 -0.0858466 -0.0027622 0.996305
-0.0851607 0.216887 -0.0118134 -0.275245 -0.9401 0.201128
-0.0666318 -0.219596 -0.0652499 0.0195293 -0.940284 -0.33983
0.254507 0.200486 -0.135872 -0.0113189 0.975299 -0.2206
0.134962 -0.0297245 0.259325 0.544842 0.0235317 -0.838208
-0.222979 0.110729 -0.155143 0.189615 0.126788 -0.973638
-0.0457453 0.0652396 -0.123191 -0.0895804 -0.0310989 0.995494
-0.0877534 -0.231701 0.0591395 0.346892 -0.93411 -0.0842853
0.474363 -0.238472 0.273476 0.0267194 -0.596546 -0.802134
0.186933 0.196256 0.245265 0.167821 -0.571264 -0.803426
0.125831 -0.228348 0.226944 0.00152047 -0.950535 0.310613
0.192931 -0.171089 -0.10689 0.288377 0.901136 0.323715
0.202009 0.192063 -0.144284 -0.141235 0.369718 -0.918347
0.393135 -0.199392 -0.136103 3.13135e-07 0.983716 0.17973
0.0884106 0.190433 -0.0974741 -0.0785444 0.81752 -0.570519
0.307062 -0.187248 -0.145242 -0.0463336 0.684661 -0.727387
0.115774 0.208462 0.161807 0.331082 -0.909957 0.249727
0.122738 -0.0985016 -0.118644 -0.36315 0.0350344 -0.931072
0.0834746 -0.111727 -0.11299 0.156587 0.00117177 -0.987663
0.370496 0.199068 -0.143736 -0.0930802 -0.111806 -0.989361
-0.0962038 -0.221879 -0.00575491 0.0251342 -0.989253 -0.144038
-0.214229 -0.00111503 -0.152644 0.250823 -1.64825e-05 -0.968033
0.211079 -0.233125 0.254775 0.0238001 0.950226 -0.310652
0.124148 -0.064075 0.283381 0.26027 0.0445967 -0.964505
-0.012829 -0.0402708 -0.126674 -0.0807082 -0.00777258 0.996707
0.159381 0.0887851 -0.121397 -0.620056 0.0345171 -0.783798
0.0667738 -0.140397 -0.113223 -0.272047 -0.0713834 0.959633
-0.126971 -0.0899987 -0.135383 -0.151509 0.0296182 0.988012
0.108337 0.204891 0.152386 0.433139 -0.797184 0.420582
0.139248 -0.22077 0.10302 0.31308 0.948858 0.0406067
0.153693 0.19477 -0.0921804 0.245645 -0.906461 0.343492
0.127501 0.00588044 0.215825 0.916263 -0.244322 -0.317442
0.21671 -0.204565 -0.137119 0.10642 0.986161 0.127123
0.0825697 0.0365235 -0.09431 -0.613382 0.209057 0.761615
-0.0288991 -0.161691 -0.121168 0.00446729 0.130944 0.99138
0.41395 0.200678 -0.131759 -0.0930802 -0.111806 -0.989361
0.0736938 -0.210572 -0.128206 0.177126 0.360348 -0.915847
0.0968712 -0.104451 0.156214 0.99295 0.117064 -0.0186056
0.141623 0.233328 0.22618 -0.163208 -0.982951 -0.0846836
0.0798415 -0.104422 0.00407263 0.986859 -0.0324968 0.158279
0.128559 -0.165763 -0.0962838 -0.445397 -0.677194 -0.585688
0.0809052 0.0586999 0.10577 0.994084 -0.0465106 0.0981521
0.24471 -0.211367 -0.1218 0.0302155 0.999542 0.00190714
0.0804069 0.0200216 0.0109583 0.99881 -0.0343688 0.0346028
0.143002 -0.208899 0.264803 -0.0201787 -0.431724 0.90178
-0.143952 -0.180816 -0.133519 0.161148 -0.234105 -0.958763
-0.0375036 0.170647 -0.12164 0.121175 -0.403351 0.906986
-0.201883 -0.202122 -0.129398 0.213492 -0.149858 -0.965383
0.303608 0.171036 -0.134344 -0.0944875 -0.557739 -0.824621
-0.220734 0.131456 -0.151337 0.167276 0.158558 -0.973077
0.127899 0.188473 0.0778633 0.629079 -0.768574 0.116425
0.0871752 0.157334 0.139364 0.99435 -0.0986301 -0.0392402
0.0167895 -0.0573971 -0.123859 -0.104405 8.64518e-05 0.994535
0.0838784 0.210074 0.173643 0.0972775 0.970295 -0.221505
-0.231196 -0.198451 -0.143689 0.237713 -0.140092 -0.96118
0.0870732 0.150921 0.220641 0.959476 0.0581148 -0.275733
-0.0563808 0.224425 0.178912 0.102385 0.991212 -0.0837561
-0.00674223 -0.104194 -0.126187 -0.051862 0.0700624 0.996194
0.499225 -0.207095 0.272955 0.0108593 -0.608461 -0.793509
0.142639 -0.221903 0.221327 0.0609222 -0.979318 0.192937
-0.0733425 0.208892 -0.0720657 -0.100452 -0.911715 0.398354
0.386338 -0.207699 0.253077 0.0108813 -0.601597 -0.798725
-0.0781936 -0.227884 0.0376631 0.105619 -0.989512 -0.0985445
0.117813 -0.1047 -0.0314963 0.994585 -0.00744209 0.103658
-0.0375881 -0.23112 0.173614 -0.108561 0.989672 0.093611
0.0920404 0.193236 0.0171751 0.779084 -0.600781 0.179134
0.296691 0.205484 -0.123625 -0.0772963 -0.668065 -0.740078
0.120506 0.200108 0.0736627 0.373241 -0.924514 0.077228
0.39714 0.222197 0.275707 0.03348 -0.0398903 -0.998643
0.148059 -0.177806 -0.0939304 0.196662 0.922153 0.333103
-0.138759 0.0562224 -0.138487 -0.192874 -0.0253545 0.980896
0.0951245 -0.214781 0.207667 0.189707 -0.981149 0.0368558
0.290221 0.209009 0.253605 0.0572663 -0.0250654 -0.998044
0.109092 -0.0151151 -0.0521859 0.981498 -0.0199424 0.190433
0.432618 0.222506 0.256232 0.0443826 0.0130272 -0.99893
0.00388594 0.0772483 -0.125539 -0.0809123 -0.0285006 0.996314
0.152975 0.174661 -0.0604311 0.84838 -0.529262 0.0115173
0.117011 0.0639178 0.08752 0.992359 -0.0935334 0.080464
0.0824132 -0.00353428 0.225818 0.965746 -0.179913 -0.186993
-0.127903 -0.0502906 -0.131635 -0.162091 0.00727044 0.986749
0.12583 0.115528 0.279129 0.418647 0.0335696 -0.907528
0.0991805 0.20273 0.161952 0.664613 -0.692375 0.280902
0.136442 0.172398 -0.0333059 0.914021 -0.403592 -0.0409766
-0.184359 -0.0977632 -0.143726 -0.221522 0.0674056 0.972823
-0.0776238 -0.241118 0.191923 -0.0745719 0.994886 0.0681234
0.326198 -0.196305 -0.118207 -0.0176592 0.94543 -0.325347
0.0494525 0.175606 -0.106847 0.0859091 -0.0133384 -0.996214
-0.0777352 0.229696 0.117955 0.212872 0.972611 -0.0933495
0.121144 0.0986921 0.213008 0.958563 0.14712 -0.243954
-0.198367 -0.136583 -0.146319 0.181199 -0.0859816 -0.979681
-0.0915349 0.039275 -0.131628 -0.126273 -0.0157937 0.99187
0.117077 -0.0190077 0.110174 0.993569 0.11284 0.00932753
0.0841341 0.104398 0.158179 0.992279 -0.108978 -0.0592191
-0.0843569 -0.240707 0.0698462 -0.376508 0.921295 0.0972527
-0.134587 -0.107644 -0.134135 -0.153557 0.0804909 0.984856
-0.118898 0.15102 -0.130676 -0.167531 -0.157397 0.973221
0.11677 -0.125343 0.0816148 0.988778 0.140944 0.049535
0.251976 0.20263 0.261829 0.109539 -0.249209 -0.962235
0.152246 0.057161 0.278273 0.430096 -0.0153741 -0.902652
-0.077415 0.0810267 -0.122806 -0.105378 -0.0698543 0.991976
0.391984 0.18152 -0.135859 -0.0930802 -0.111806 -0.989361
0.129569 -0.188734 0.27571 -0.175277 -0.331081 0.92718
0.144406 0.0932033 0.265444 0.368886 -0.115791 -0.922234
0.0711899 0.197021 -0.120939 0.151797 0.11246 -0.981993
-0.0683682 0.221328 0.0792008 0.230528 0.969109 -0.0876604
0.0868489 0.0642349 0.160005 0.991862 0.0265529 -0.124516
0.142707 0.19365 0.177456 0.781511 -0.621126 0.0586799
0.0842269 0.0841446 0.113785 0.996714 0.0803856 -0.00995888
0.470346 0.200462 -0.147104 -0.0930802 -0.111806 -0.989361
0.452497 0.209603 0.272855 0.0443826 0.0130272 -0.99893
0.010191 -0.136015 -0.126324 -0.0232899 -0.0317845 0.999223
0.118959 0.151193 0.00705458 0.94195 -0.288297 0.172092
-0.143166 -0.203939 -0.121316 0.0788873 -0.644347 -0.760654
0.120437 -0.0539531 -0.0202457 0.98789 0.0269846 0.152791
0.00748975 -0.165467 -0.118167 0.0160015 0.0854445 0.996214
0.115379 0.122298 0.0384082 0.962868 -0.19747 0.184097
0.131209 -0.0843413 0.247162 0.821538 0.00390413 -0.570141
0.141441 -0.221487 0.273253 0.0893354 0.534367 -0.840518
0.0849052 0.131174 0.0046673 0.985499 -0.0644781 0.156952
0.158714 0.194244 -0.118968 -0.0752343 0.957897 -0.277078
-0.101615 -0.214443 -0.110629 0.0037441 -0.875144 -0.483848
0.341694 -0.199627 -0.135364 -0.0417387 0.94754 -0.316899
-0.0268549 0.189386 -0.110068 -0.0844575 0.54453 -0.834479
0.152736 -0.222787 0.263988 0.0689554 0.54365 -0.836475
0.122317 0.0131341 0.185611 0.99897 0.0129804 -0.0434884
0.0869823 0.220938 0.21326 -0.145 -0.988894 -0.0326231
0.126067 0.178246 0.111669 0.852921 -0.510057 0.111207
-0.116027 0.189157 -0.117229 0.256189 0.458903 -0.85075
0.107258 0.129361 0.268037 0.736012 -0.0739004 -0.672923
0.141307 -0.22068 0.0777269 -0.326302 -0.940448 -0.0953167
0.12421 0.202709 0.261767 -0.0662361 0.515288 0.854454
-0.214973 0.167014 -0.139221 0.188884 0.176544 -0.965999
0.163055 0.202129 -0.0194557 -0.49003 0.859599 -0.144777
0.253948 -0.193476 -0.114368 0.0970434 0.987464 0.124489
0.117313 0.202507 -0.00183917 -0.412392 0.902923 -0.121087
0.0825827 -0.0336161 -0.0403598 0.994677 -0.0895464 -0.050972
0.34248 0.192672 -0.123937 -0.107106 -0.211094 -0.97158
0.123868 -0.154325 0.273355 0.62872 0.109445 -0.769891
0.354514 0.199462 -0.139215 -0.0854593 0.016597 -0.996203
0.114249 -0.0788923 -0.116049 0.145028 0.214363 0.965927
0.104748 -0.207446 0.016876 -0.616381 -0.780188 -0.106682
-0.22563 0.176374 -0.130809 0.188884 0.176544 -0.965999
0.0895468 -0.139108 0.194842 0.991244 0.109371 -0.0739887
0.111067 -0.0180569 0.0224246 0.99331 0.0971351 -0.062447
0.120763 0.176785 -0.130845 0.0527132 -0.310501 0.94911
0.0915594 -0.09458 -0.0408932 0.992154 0.111347 0.0568475
0.104842 0.00275788 -0.0834309 0.929689 -0.193778 0.313254
-0.114338 -0.206853 -0.104866 -0.104945 0.785004 0.610537
0.144531 -0.0531603 -0.129393 -0.271641 0.0133851 -0.962306
-0.0779261 0.23329 0.154343 0.158411 0.983547 -0.086841
0.0875718 -0.0608901 0.250857 0.86014 -0.0234565 -0.509519
0.0855761 -0.144423 -0.0298036 0.983678 -0.0927813 0.154173
0.132255 -0.144657 -0.137047 0.380375 -0.0179337 0.924658
0.0770477 -0.136465 0.0318363 0.991919 0.0343651 0.122129
-0.0790506 -0.228385 -0.00137139 0.0400285 -0.990762 -0.129569
0.12787 0.175229 -0.0849035 0.385604 -0.922572 0.0130544
0.123159 0.0800157 0.138474 0.999516 -0.0212189 0.0227403
0.0833239 0.0197203 -0.039184 0.995947 0.00418331 0.0898396
-0.132653 0.0678298 -0.130917 -0.191947 -0.0438516 0.980425
0.117355 0.111167 0.0118227 0.988132 -0.0736102 0.134821
0.123026 0.00654854 -0.0775699 0.869837 -0.0826328 0.486369
0.115936 0.0495354 0.0574724 0.999399 0.0299009 -0.0175494
0.0842876 -0.10582 0.0943923 0.991477 -0.0638897 -0.113538
0.204014 0.207296 0.272696 0.0620137 -0.3137 -0.947495
0.160571 -0.0529221 0.244715 0.781359 -0.0290122 -0.623407
0.0148279 0.159923 -0.1172 0.0168711 0.0697622 -0.997421
-0.0601392 -0.199849 -0.127332 0.0831558 -0.626526 -0.774952
-0.0926219 0.214613 -0.0362613 -0.125562 -0.960551 0.248144
0.251167 0.204543 0.276759 0.109539 -0.249209 -0.962235
-0.062769 -0.154265 -0.111164 -0.0161145 0.18968 0.981714
-0.046668 -0.235643 0.189099 -0.108561 0.989672 0.093611
0.147964 -0.227277 0.226067 -0.224735 0.963318 -0.146668
0.252808 -0.192508 0.24469 0.119753 0.398906 -0.909139
0.0754701 -0.0767107 0.0956918 0.997161 0.0604689 -0.044868
0.110102 -0.10181 -0.0157081 0.977734 -0.055456 0.202386
0.123751 0.217633 0.270495 -0.0285886 0.700904 0.712683
0.148433 0.218488 0.0399883 0.543181 -0.832716 0.10742
-0.0882816 -0.167615 -0.12526 -0.0774513 0.191227 0.978485
0.11678 -0.070627 0.0595256 0.99072 -0.133201 -0.0270585
0.132372 0.204924 0.217485 -0.368033 -0.929474 -0.025103
0.079395 -0.0271757 0.0587403 0.999456 -0.0274356 0.0183035
0.110201 -0.00224492 0.0473722 0.999367 0.0355715 0.00091663
0.303961 0.193973 0.263649 0.0221506 0.216209 -0.976096
-0.150564 -0.0553317 -0.139913 -0.187507 0.0239169 0.981972
-0.0599353 -0.222325 0.181349 -0.0745719 0.994886 0.0681234
0.164949 -0.193043 -0.143797 0.242609 0.713267 0.657564
0.163023 -0.184747 -0.0601399 0.365694 0.884688 0.289129
0.146909 0.14847 -0.133128 0.281311 -0.060978 0.957677
-0.0304472 -0.0159496 -0.119575 -0.0928599 -0.0229374 0.995415
-0.0790104 0.154711 -0.129402 -0.0374112 -0.174852 0.983884
0.0807592 -0.0507548 0.0999511 0.999662 -0.00168791 -0.0259479
0.122723 -0.228261 0.165637 -0.303093 -0.941002 -0.150499
0.457971 0.184028 -0.155828 -0.0930802 -0.111806 -0.989361
-0.128647 -0.033559 -0.132878 -0.174188 0.0124997 0.984633
0.147863 0.143439 -0.107997 0.745519 -0.0967281 0.659428
0.118584 0.205603 -0.0754625 -0.163898 0.986256 -0.0208935
0.11181 -0.240325 0.235024 -0.0138656 0.963756 -0.266424
0.136916 0.0566592 0.244301 0.842738 -0.0360144 -0.537118
-0.129251 -0.0682394 -0.139769 -0.160647 0.0269502 0.986644
0.149365 0.0999065 0.266913 0.421524 -0.0817611 -0.903124
0.120534 0.2148 -0.0468371 -0.269251 0.962632 -0.0290333
-0.0760105 0.225122 0.17291 0.122386 0.989105 -0.081812
-0.0691266 0.00834512 -0.119047 -0.112049 0.00607181 0.993684
-0.200797 -0.0678142 -0.145684 -0.238229 0.053688 0.969724
0.0905727 0.14007 0.198892 0.994301 -0.0633888 -0.0857116
0.116847 -0.107793 -0.0789173 0.990702 0.135891 0.00659767
-0.0810685 0.241198 0.171494 0.165695 0.981382 -0.0971349
0.024568 0.0945653 -0.119626 -0.137259 0.0068059 0.990512
-0.125514 0.195242 -0.131649 0.226527 0.40041 -0.887895
0.0885482 0.0963122 0.171848 0.989076 -0.00473354 -0.147329
0.118719 -0.0206728 0.0725873 0.997177 0.0697609 -0.0277657
-0.186783 0.20125 -0.113923 0.197367 0.209107 -0.957768
0.119037 -0.168292 0.106861 0.957431 0.288161 -0.0170044
0.119033 -0.140718 0.20466 0.972397 0.198346 -0.122894
-0.0406331 0.180982 -0.100746 -0.079927 0.537753 -0.839305
0.0265931 0.204687 -0.129251 0.060177 0.0566922 -0.996577
0.0885522 0.207825 0.217082 0.438284 0.887715 -0.140959
0.118003 -0.0662494 0.133665 0.998618 0.0334899 -0.0404919
-0.171513 0.171675 -0.136128 -0.185476 -0.20559 0.960901
0.111744 0.0506912 -0.0179231 0.986717 -0.0837867 0.139172
0.116405 0.0944466 -0.122136 0.192234 0.0787778 0.978182
0.127083 -0.211841 -0.0517373 -0.403326 -0.890565 -0.210289
0.454873 0.215886 0.273997 0.0443826 0.0130272 -0.99893
0.124067 0.0712918 0.269561 0.508637 -0.028132 -0.860522
0.10185 0.162529 -0.0920387 -0.446346 -0.0181421 0.894676
0.120537 -0.143447 0.172607 0.990955 0.133725 0.0112606
0.181739 0.169143 0.27067 -0.00987045 -0.0643249 -0.99788
0.137584 0.221345 0.0950711 0.211473 -0.976793 0.0339762
0.143519 -0.0183359 0.280035 0.337164 0.0216725 -0.941196
0.332487 0.223049 0.262186 0.0306616 0.380842 -0.924132
0.0516656 -0.00996564 -0.116633 -0.216288 -0.0362154 0.975658
0.136694 -0.151682 0.252437 0.507986 0.127017 -0.851949
0.136319 0.0490495 -0.0894481 0.800527 0.124696 0.586181
0.15744 -0.228789 0.211674 -0.131931 0.984612 -0.114604
-0.0959781 0.229873 0.0765098 0.384704 0.918668 -0.08973
0.132102 -0.17917 -0.102772 -0.279071 -0.925835 -0.254851
0.0984907 -0.129453 0.16379 0.995467 0.0781999 -0.0541275
-0.0813413 0.247688 0.186499 0.0988538 0.994045 -0.0458445
0.146362 -0.192216 0.00724392 0.6573 0.729571 0.188899
0.345123 -0.186379 -0.137448 -0.0403721 0.960892 -0.273965
-0.00371745 0.0784434 -0.120527 -0.0594003 -0.0332671 0.99768
0.458045 0.21073 0.258921 0.0443826 0.0130272 -0.99893
0.42299 -0.229605 0.273267 0.0267194 -0.596546 -0.802134
0.129263 -0.026037 -0.124984 0.286088 -0.182671 0.94063
0.150521 0.0422724 -0.14522 -0.30351 -0.00381256 -0.952821
0.28421 0.203893 0.259856 0.0458906 -0.319512 -0.94647
0.14814 -0.197902 -0.0671094 0.184912 0.950464 0.249852
0.112126 -0.160705 -0.0357292 0.950721 0.309986 -0.00615225
0.407659 0.196003 0.244585 0.0443826 0.0130272 -0.99893
0.111529 -0.189011 0.279266 -0.271838 -0.236871 0.932736
0.112244 0.22145 0.229286 0.118425 0.961973 0.246139
0.096839 -0.0672606 -0.115716 -0.061691 0.13694 0.988656
0.0816465 0.0816944 -0.094693 -0.643738 -0.137152 0.752855
0.118853 0.113919 -0.0237619 0.97604 -0.185296 0.114069
0.104421 -0.233168 0.197994 0.0041316 -0.998935 -0.0459575
-0.183535 -0.0981622 -0.153271 -0.221522 0.0674056 0.972823
-0.188486 0.202856 -0.132514 0.171053 0.197476 -0.965269
0.161519 -0.0318084 0.276287 0.34651 -0.0532499 -0.936534
0.317373 -0.196097 0.253956 -0.000530987 -0.537306 -0.843387
0.221758 0.199361 0.237544 0.221391 -0.695146 -0.683928
-0.213889 0.174456 -0.142926 -0.17242 -0.196989 0.965125
0.188756 -0.202849 -0.11376 0.153761 0.97558 0.156845
0.116564 0.122285 0.16846 0.997138 -0.039204 -0.0646486
0.0818177 0.210136 0.109073 0.756974 -0.6533 0.0137323
-0.0190358 -0.0158089 -0.120458 -0.0824886 -0.0135647 0.9965
0.0953286 -0.0399678 0.205374 0.99022 -0.0220759 -0.137756
-0.0633623 -0.0552937 -0.124728 -0.0935309 0.0143902 0.995512
0.146108 0.231919 0.188696 0.11638 0.99316 0.00947715
0.0777061 0.0380825 0.176776 0.993314 -0.0574526 -0.100133
0.0953873 -0.215908 0.252712 0.4106 0.351974 -0.841143
0.119331 0.155391 0.0648365 0.929221 -0.369525 -0.000206226
0.137858 0.198879 -0.101454 0.168235 -0.964774 0.202258
0.157148 0.215077 0.119471 0.710717 -0.703478 -0.000825545
0.121217 -0.158021 0.239763 0.770917 0.147342 -0.619659
-0.0997697 0.245525 0.117454 0.212872 0.972611 -0.0933495
0.121395 0.0773345 0.184961 0.99981 0.0193183 -0.00260598
0.135284 -0.209071 0.0466964 -0.38455 -0.90644 -0.174606
0.10034 0.203437 -0.105542 -0.151986 0.941962 -0.299346
0.194744 -0.169288 -0.126393 -0.236401 -0.555679 -0.797079
0.125372 -0.196964 0.190882 0.883471 0.468486 0.000822939
-0.20751 -0.0440378 -0.157233 0.238308 -0.0367349 -0.970495
0.147935 -0.0392367 0.269177 0.298451 -0.0331563 -0.953849
-0.137935 0.181941 -0.112204 0.213123 0.399016 -0.891832
0.08373 0.00389586 0.0718285 0.998117 -0.0209486 0.057649
0.0786232 -0.0193687 0.105927 0.998501 0.0520306 0.0169581
0.1045 -0.0939226 0.276235 0.446059 0.0913491 -0.89033
0.154138 0.195561 0.226559 -0.112689 0.944589 0.308306
0.0981334 -0.0986132 0.26447 0.751478 0.176649 -0.63567
0.134812 0.138239 -0.0393066 0.963882 -0.224995 0.142507
0.244993 -0.208953 0.277001 -0.0108484 -0.169715 -0.985433
0.0786718 0.0657754 0.113393 0.989735 -0.104894 0.0970643
0.06768 0.0449198 -0.123848 -0.108662 0.00483923 0.994067
0.116851 0.0776729 -0.033749 0.971707 -0.17771 0.155578
0.156142 -0.2124 0.132338 0.579499 0.814644 0.0231485
0.135909 -0.074795 -0.0717293 0.958676 -0.110913 0.261988
-0.106944 0.043541 -0.141752 -0.149637 -0.0217462 0.988502
0.118172 -0.198171 0.157287 0.721146 0.670449 0.174488
0.0912412 0.138137 -0.114318 -0.0727826 0.0285058 0.99694
-0.141551 -0.0376062 -0.13994 -0.188814 0.00015901 0.982013
-0.0867544 -0.2388 0.0164845 0.137005 -0.98368 -0.116637
0.0734803 -0.119376 0.070684 0.994873 0.0791191 -0.0629889
0.0255154 -0.00592271 -0.124422 -0.0983394 -0.0327101 0.994615
0.0919468 -0.188561 0.117574 0.850353 0.526108 0.0105035
-0.0941087 -0.251554 0.126813 -0.020925 0.998886 0.0422901
0.0903501 0.0518277 0.0630611 0.998084 -0.0618273 -0.00242099
-0.176462 -0.16856 -0.129743 -0.228644 0.14844 0.962126
