ply
format ascii 1.0
comment Created by Open3D
element vertex 1024
property double x
property double y
property double z
element face 0
property list uchar uint vertex_indices
end_header
0.548814 0.715189 0.602763
0.544883 0.423655 0.645894
0.437587 0.891773 0.963663
0.383442 0.791725 0.528895
0.568045 0.925597 0.0710361
0.0871293 0.0202184 0.83262
0.778157 0.870012 0.978618
0.799159 0.461479 0.780529
0.118274 0.639921 0.143353
0.944669 0.521848 0.414662
0.264556 0.774234 0.45615
0.568434 0.0187898 0.617635
0.612096 0.616934 0.943748
0.68182 0.359508 0.437032
0.697631 0.0602255 0.666767
0.670638 0.210383 0.128926
0.315428 0.363711 0.570197
0.438602 0.988374 0.102045
0.208877 0.16131 0.653108
0.253292 0.466311 0.244426
0.15897 0.110375 0.65633
0.138183 0.196582 0.368725
0.820993 0.0971013 0.837945
0.0960984 0.976459 0.468651
0.976761 0.604846 0.739264
0.0391878 0.282807 0.120197
0.29614 0.118728 0.317983
0.414263 0.0641475 0.692472
0.566601 0.265389 0.523248
0.0939405 0.575946 0.929296
0.318569 0.66741 0.131798
0.716327 0.289406 0.183191
0.586513 0.0201075 0.82894
0.00469548 0.677817 0.270008
0.735194 0.962189 0.248753
0.576157 0.592042 0.572252
0.223082 0.952749 0.447125
0.846409 0.699479 0.297437
0.813798 0.396506 0.881103
0.581273 0.881735 0.692532
0.725254 0.501324 0.956084
0.64399 0.423855 0.606393
0.0191932 0.301575 0.660174
0.290078 0.618015 0.428769
0.135474 0.298282 0.569965
0.590873 0.574325 0.653201
0.652103 0.431418 0.896547
0.367562 0.435865 0.891923
0.806194 0.703889 0.100227
0.919483 0.714241 0.998847
0.149448 0.868126 0.162493
0.61556 0.12382 0.848008
0.807319 0.569101 0.407183
0.069167 0.697429 0.453543
0.722056 0.866382 0.975522
0.855803 0.0117141 0.359978
0.729991 0.17163 0.521037
0.054338 0.199997 0.0185218
0.793698 0.223925 0.345352
0.928081 0.704414 0.0318389
0.164694 0.621478 0.577229
0.237893 0.934214 0.613966
0.535633 0.58991 0.730122
0.311945 0.398221 0.209844
0.186193 0.944372 0.739551
0.490459 0.227415 0.254356
0.0580292 0.434417 0.311796
0.696343 0.377752 0.179604
0.0246787 0.0672496 0.679393
0.453697 0.536579 0.896671
0.990339 0.216897 0.663078
0.263322 0.020651 0.758379
0.320017 0.383464 0.588317
0.831048 0.628982 0.872651
0.273542 0.798047 0.185636
0.952792 0.687488 0.215508
0.947371 0.730856 0.253942
0.213312 0.518201 0.0256627
0.20747 0.424685 0.37417
0.463575 0.277629 0.586784
0.863856 0.117532 0.517379
0.132068 0.71686 0.39606
0.565421 0.18328 0.144848
0.488056 0.355613 0.940432
0.765325 0.748664 0.90372
0.0834224 0.552192 0.584476
0.961936 0.292148 0.240829
0.100294 0.0164296 0.929529
0.669917 0.785153 0.28173
0.58641 0.0639553 0.485628
0.977495 0.876505 0.338159
0.96157 0.231702 0.949319
0.941378 0.799203 0.630448
0.874288 0.29302 0.848944
0.617877 0.0132369 0.347234
0.148141 0.981829 0.47837
0.497391 0.639473 0.368585
0.1369 0.822118 0.189848
0.511319 0.224317 0.0978445
0.862192 0.972919 0.960835
0.906555 0.774047 0.333145
0.0811014 0.407241 0.232234
0.132488 0.0534272 0.725594
0.0114275 0.770581 0.146947
0.0795221 0.089603 0.672048
0.245367 0.420539 0.557369
0.860551 0.727044 0.270328
0.131483 0.0553743 0.301599
0.262118 0.456141 0.683281
0.695625 0.283519 0.379927
0.181151 0.788546 0.0568481
0.696997 0.778695 0.777408
0.259423 0.373813 0.5876
0.272822 0.370853 0.197054
0.459856 0.0446123 0.799796
0.0769564 0.518835 0.30681
0.577543 0.959433 0.64557
0.0353624 0.430402 0.510017
0.536177 0.681393 0.277596
0.128861 0.392676 0.956406
0.187131 0.903984 0.543806
0.456911 0.882041 0.458604
0.724168 0.399025 0.904044
0.690025 0.699622 0.32772
0.756779 0.636061 0.24002
0.160539 0.796391 0.959167
0.458139 0.590984 0.857723
0.457223 0.951874 0.575751
0.820767 0.908844 0.815524
0.159414 0.628898 0.398434
0.062713 0.424032 0.258684
0.849038 0.0333046 0.958983
0.355369 0.356707 0.0163285
0.185232 0.40126 0.929291
0.0996149 0.945302 0.869489
0.454162 0.326701 0.232744
0.614465 0.0330746 0.0156061
0.428796 0.0680741 0.251941
0.221161 0.253191 0.131055
0.0120362 0.115484 0.61848
0.974256 0.990345 0.409054
0.162954 0.638762 0.490305
0.98941 0.0653042 0.783234
0.288398 0.241419 0.662505
0.246063 0.665859 0.517309
0.424089 0.554688 0.287052
0.706575 0.414857 0.360546
0.828657 0.924967 0.0460073
0.232627 0.348519 0.814966
0.985491 0.968972 0.904948
0.296556 0.992011 0.24942
0.105906 0.950953 0.23342
0.689768 0.0583564 0.730709
0.88172 0.272437 0.379057
0.374296 0.748788 0.237807
0.171853 0.449292 0.304468
0.839189 0.237742 0.502389
0.942584 0.633998 0.867289
0.94021 0.750765 0.699575
0.967966 0.994401 0.451822
0.0708698 0.292794 0.152355
0.417486 0.131289 0.604118
0.382808 0.895386 0.967795
0.546885 0.274824 0.59223
0.896761 0.406733 0.552078
0.271653 0.455444 0.401714
0.248413 0.505866 0.310381
0.373035 0.52497 0.750595
0.333507 0.924159 0.862319
0.0486903 0.253643 0.446136
0.104628 0.348476 0.740098
0.680514 0.622384 0.710528
0.204924 0.341698 0.676242
0.879235 0.543678 0.2827
0.0302353 0.710337 0.0078841
0.372679 0.530537 0.922111
0.0894945 0.405942 0.0243132
0.342611 0.622231 0.279068
0.20975 0.115703 0.57714
0.69527 0.671957 0.948861
0.00270321 0.647197 0.600392
0.58874 0.96277 0.0168717
0.696482 0.813679 0.509807
0.333965 0.79084 0.0972429
0.442036 0.519952 0.693956
0.0908857 0.22776 0.410302
0.623295 0.886961 0.618826
0.133461 0.98058 0.871786
0.502721 0.922348 0.541381
0.923306 0.829897 0.968286
0.919783 0.0360338 0.174772
0.389135 0.952143 0.300029
0.160468 0.886305 0.446394
0.907876 0.16023 0.661118
0.440264 0.0764868 0.696463
0.247399 0.0396155 0.0599443
0.0610785 0.907733 0.739884
0.898062 0.672582 0.52894
0.304446 0.997962 0.362189
0.470649 0.378245 0.979527
0.174658 0.327988 0.680349
0.0632076 0.607249 0.477647
0.284 0.238413 0.514513
0.367928 0.45652 0.337477
0.970494 0.133439 0.096804
0.343392 0.591027 0.659176
0.397257 0.999278 0.351893
0.721407 0.637583 0.813054
0.976226 0.889794 0.764562
0.698248 0.335498 0.147686
0.062636 0.241902 0.432281
0.521996 0.773084 0.958741
0.11732 0.107004 0.589695
0.745398 0.84815 0.935832
0.983426 0.399802 0.380335
0.147809 0.684934 0.656762
0.862063 0.097258 0.497777
0.581082 0.241557 0.169025
0.859581 0.0585349 0.470621
0.115834 0.457059 0.979962
0.423706 0.857125 0.117316
0.271252 0.403793 0.399812
0.671383 0.344718 0.713767
0.639187 0.399161 0.43176
0.614528 0.0700422 0.822407
0.653421 0.726342 0.536923
0.110477 0.405036 0.405374
0.321043 0.0299503 0.737254
0.109784 0.606308 0.703217
0.634786 0.959142 0.103298
0.867167 0.0291902 0.534917
0.404244 0.524184 0.3651
0.190567 0.0191229 0.51815
0.842777 0.373216 0.222864
0.080532 0.0853109 0.221396
0.100014 0.26504 0.0661495
0.0656049 0.856276 0.16212
0.559682 0.773456 0.45641
0.153369 0.199596 0.432984
0.528234 0.34944 0.78148
0.751022 0.927212 0.0289525
0.895691 0.392569 0.878372
0.690785 0.987349 0.759282
0.364545 0.501063 0.376389
0.364912 0.260904 0.49597
0.68174 0.27734 0.52438
0.11738 0.159845 0.0468064
0.970731 0.00386035 0.17858
0.612867 0.0813696 0.881897
0.71962 0.96639 0.507636
0.300404 0.549501 0.930819
0.520761 0.267207 0.877399
0.371919 0.00138335 0.247685
0.318234 0.858777 0.458503
0.444587 0.336102 0.880678
0.945027 0.99189 0.376741
0.966147 0.79188 0.675689
0.244889 0.216457 0.166048
0.922757 0.294077 0.453094
0.493958 0.778172 0.844235
0.139073 0.426904 0.842855
0.818033 0.102414 0.156383
0.304199 0.0753591 0.424663
0.107618 0.568218 0.246557
0.596433 0.117526 0.975884
0.932561 0.391797 0.242179
0.250398 0.483394 0.0399928
0.639705 0.408303 0.377407
0.809365 0.709035 0.954334
0.351936 0.897543 0.769967
0.357425 0.621665 0.28857
0.8744 0.112427 0.212434
0.183033 0.403026 0.745233
0.526907 0.487676 0.000545965
0.425402 0.0635538 0.208253
0.932394 0.215398 0.858338
0.802893 0.159146 0.605712
0.115662 0.727888 0.637462
0.811939 0.479385 0.914863
0.0493489 0.292889 0.715053
0.418109 0.172951 0.107211
0.817339 0.473143 0.882284
0.733289 0.409726 0.373511
0.515638 0.88906 0.737279
0.00515296 0.694158 0.919507
0.710456 0.177006 0.483518
0.140316 0.358995 0.937117
0.923305 0.282837 0.339631
0.600213 0.963197 0.147801
0.256917 0.873557 0.491892
0.898961 0.185518 0.532669
0.32627 0.316543 0.446877
0.433077 0.357347 0.914971
0.731744 0.727547 0.289913
0.577709 0.779179 0.79559
0.34453 0.770873 0.735894
0.141506 0.865945 0.441321
0.48641 0.448369 0.567846
0.621169 0.49818 0.866789
0.627735 0.401428 0.416692
0.810839 0.348192 0.211455
0.0593832 0.876027 0.918546
0.12012 0.334474 0.175372
0.115898 0.899867 0.0568773
0.980486 0.0964509 0.863471
0.566506 0.367917 0.342342
0.757364 0.314573 0.657319
0.517326 0.484966 0.901162
0.554645 0.826862 0.725574
0.0385572 0.77311 0.21687
0.90315 0.0429242 0.333072
0.0997329 0.475589 0.820022
0.298187 0.150935 0.330267
0.81388 0.140384 0.227362
0.068852 0.70571 0.395233
0.31084 0.718626 0.335978
0.727771 0.815199 0.217663
0.973819 0.162358 0.290841
0.179795 0.345506 0.480061
0.522176 0.853606 0.889448
0.220104 0.622894 0.111496
0.45897 0.322334 0.316501
0.482584 0.729828 0.0691827
0.879173 0.734814 0.176499
0.939161 0.506312 0.999809
0.197259 0.534908 0.290248
0.304174 0.591065 0.921719
0.805264 0.723941 0.559174
0.922299 0.492361 0.873832
0.833982 0.213835 0.771225
0.0121712 0.32283 0.229567
0.506863 0.736853 0.0976764
0.514922 0.938412 0.228647
0.677141 0.59288 0.0100637
0.475826 0.70877 0.0439754
0.879521 0.520081 0.030661
0.224414 0.953676 0.58232
0.107473 0.287545 0.456704
0.0209501 0.411616 0.489459
0.243678 0.588639 0.75324
0.235834 0.6205 0.639622
0.94854 0.778276 0.848345
0.49042 0.185349 0.995815
0.129356 0.471457 0.0680931
0.943851 0.964925 0.719389
0.349993 0.254382 0.265303
0.127294 0.525809 0.141817
0.316731 0.626706 0.727544
0.0242727 0.430116 0.652125
0.853246 0.475325 0.969206
0.265633 0.0135087 0.483753
0.256114 0.823718 0.232773
0.310629 0.791227 0.715143
0.558051 0.704948 0.418637
0.00531005 0.0113551 0.511222
0.083291 0.0510755 0.965517
0.859003 0.152027 0.000664219
0.941668 0.278325 0.185898
0.691508 0.108904 0.26465
0.975095 0.639463 0.520678
0.397919 0.774501 0.140957
0.967338 0.861123 0.617657
0.0429062 0.700856 0.913284
0.524577 0.354225 0.120277
0.754901 0.885022 0.100252
0.758985 0.0170605 0.967055
0.615058 0.552439 0.29595
0.929292 0.265906 0.828147
0.985109 0.783397 0.51899
0.0660743 0.472414 0.438256
0.202796 0.423588 0.357758
0.163684 0.441374 0.2628
0.522062 0.0351601 0.906231
0.816364 0.552581 0.851809
0.962395 0.110522 0.630832
0.997994 0.987889 0.603323
0.128021 0.583193 0.00206464
0.198911 0.956123 0.330441
0.63839 0.280859 0.947822
0.728559 0.329651 0.791761
0.108166 0.392319 0.221218
0.683726 0.102446 0.397026
0.27665 0.506343 0.349898
0.706411 0.024577 0.633987
0.230571 0.268709 0.800256
0.955568 0.31655 0.826805
0.103991 0.633982 0.751032
0.155978 0.426002 0.892707
0.103578 0.0180964 0.590585
0.435532 0.798689 0.923456
0.299154 0.388404 0.486272
0.588151 0.983854 0.69733
0.389549 0.263768 0.944626
0.135548 0.720266 0.925395
0.664666 0.423054 0.198991
0.367475 0.706872 0.649534
0.927976 0.866861 0.816151
0.911451 0.276337 0.369524
0.379894 0.560451 0.668218
0.286717 0.0194625 0.399222
0.308528 0.942185 0.888265
0.860311 0.653 0.344289
0.548849 0.815225 0.0986104
0.801075 0.0411798 0.816421
0.807564 0.0510073 0.627161
0.502453 0.16982 0.148379
0.773259 0.567693 0.982999
0.982248 0.992667 0.118616
0.938256 0.24457 0.458212
0.757407 0.203621 0.566312
0.185817 0.104736 0.116559
0.357639 0.00465484 0.424854
0.664197 0.401688 0.0857946
0.0626889 0.278117 0.169313
0.965095 0.15123 0.805462
0.586108 0.569287 0.512081
0.971763 0.363845 0.787916
0.555294 0.395634 0.955466
0.598316 0.118917 0.417539
0.781582 0.693747 0.91634
0.259377 0.758194 0.459875
0.57361 0.955047 0.979286
0.861591 0.359097 0.887701
0.638609 0.429997 0.0357427
0.770128 0.502106 0.786188
0.748023 0.793567 0.300651
0.800799 0.548846 0.473326
0.675126 0.0213587 0.102317
0.292177 0.98299 0.139746
0.330596 0.0510531 0.331269
0.320326 0.946807 0.845154
0.382764 0.0247691 0.831031
0.660536 0.152364 0.996071
0.100233 0.867115 0.294266
0.435353 0.795457 0.677508
0.937864 0.62114 0.0978102
0.88436 0.769156 0.71187
0.0537335 0.396223 0.167436
0.821904 0.700529 0.883078
0.966575 0.774748 0.994233
0.61477 0.0371296 0.0142515
0.342104 0.823472 0.866135
0.960813 0.0651215 0.0445711
0.913284 0.305047 0.557987
0.982445 0.400449 0.665871
0.40088 0.768195 0.527715
0.237523 0.271306 0.258059
0.53232 0.703189 0.94928
0.694087 0.781193 0.168926
0.374063 0.41378 0.68638
0.295892 0.303292 0.355889
0.810302 0.57759 0.0752773
0.0782461 0.371287 0.766591
0.688683 0.707982 0.76721
0.287153 0.548256 0.543353
0.739633 0.956871 0.27799
0.793282 0.659971 0.580238
0.77488 0.944032 0.0366914
0.1474 0.756287 0.0837914
0.516124 0.219861 0.274296
0.70184 0.0301928 0.873319
0.444479 0.502393 0.540048
0.645544 0.344857 0.101107
0.318379 0.168142 0.556133
0.318029 0.958067 0.965734
0.620126 0.617497 0.985379
0.887283 0.76507 0.313591
0.365539 0.201267 0.487148
0.990369 0.912151 0.118349
0.0251903 0.898638 0.53717
0.20019 0.673653 0.644223
0.122086 0.2596 0.060078
0.20986 0.132306 0.193236
0.685467 0.0494997 0.101855
0.134174 0.316541 0.29875
0.255064 0.750537 0.998023
0.533978 0.944203 0.39661
0.106682 0.408774 0.296128
0.493407 0.657044 0.46105
0.935161 0.884765 0.701978
0.489685 0.131687 0.397014
0.704402 0.284886 0.103988
0.907898 0.709051 0.615276
0.792499 0.835646 0.483459
0.881188 0.916419 0.271551
0.607545 0.526584 0.537946
0.937663 0.305189 0.983434
0.902131 0.458723 0.817453
0.769047 0.677895 0.319834
0.196451 0.671528 0.842973
0.0162528 0.642803 0.442873
0.898088 0.321473 0.474185
0.514767 0.14044 0.712892
0.830476 0.0579093 0.291389
0.0380447 0.956544 0.667169
0.9642 0.531494 0.802069
0.374414 0.353819 0.378268
0.657862 0.359453 0.900367
0.983275 0.0304265 0.193623
0.11225 0.042364 0.227741
0.446793 0.83699 0.221824
0.493945 0.929619 0.667215
0.798079 0.550994 0.980466
0.588662 0.0455107 0.197983
0.404774 0.601277 0.771931
0.413086 0.710058 0.78987
0.31726 0.97927 0.649656
0.880998 0.555938 0.741603
0.770544 0.908248 0.15035
0.558283 0.428379 0.923159
0.105095 0.982574 0.875451
0.0738263 0.490966 0.71756
0.738152 0.906494 0.799865
0.31093 0.498435 0.701786
0.138437 0.193991 0.481042
0.298246 0.862559 0.586277
0.348665 0.848833 0.804878
0.998355 0.847308 0.414457
0.127499 0.840641 0.0597579
0.350271 0.919738 0.960766
0.640565 0.688648 0.0424545
0.51448 0.546868 0.340101
0.0685968 0.228908 0.357984
0.435142 0.590927 0.722392
0.317632 0.328954 0.0196916
0.0408749 0.257822 0.740245
0.628314 0.769789 0.768919
0.856567 0.720319 0.979011
0.898825 0.586717 0.588158
0.034267 0.998527 0.131576
0.740347 0.821015 0.373055
0.196852 0.0987599 0.748606
0.452654 0.713718 0.915408
0.146584 0.919171 0.411626
0.305267 0.943062 0.990652
0.198892 0.656838 0.106495
0.650914 0.827313 0.684499
0.417333 0.383066 0.393122
0.589712 0.881567 0.929066
0.0535296 0.181622 0.112224
0.193335 0.346608 0.506532
0.629461 0.732142 0.890112
0.989088 0.662856 0.845365
0.778039 0.307532 0.875692
0.0427631 0.000367344 0.273733
0.462098 0.638363 0.10177
0.67301 0.801816 0.185313
0.415125 0.519985 0.451807
0.79983 0.960522 0.798953
0.0779928 0.804936 0.0665963
0.23597 0.153097 0.197519
0.528315 0.67169 0.470321
0.959696 0.240292 0.76314
0.870182 0.562066 0.456223
0.596184 0.42881 0.555194
0.416934 0.40047 0.695346
0.0928512 0.166542 0.851198
0.771077 0.281454 0.377269
0.926027 0.818077 0.614346
0.22149 0.044252 0.431258
0.672627 0.82848 0.852689
0.0327759 0.244157 0.339095
0.188732 0.802975 0.767466
0.516833 0.982926 0.144059
0.899652 0.116463 0.163182
0.696219 0.10957 0.565845
0.420234 0.728474 0.900675
0.769872 0.84969 0.0329454
0.310195 0.515433 0.415953
0.231255 0.307874 0.945431
0.294181 0.353904 0.00370977
0.845078 0.154841 0.204144
0.255265 0.884622 0.206451
0.797526 0.808049 0.927021
0.115561 0.217279 0.742898
0.196001 0.28633 0.166742
0.172697 0.481553 0.109683
0.321698 0.426594 0.0245481
0.388333 0.0941224 0.493579
0.825738 0.818422 0.0804485
0.601228 0.834586 0.237973
0.761927 0.890764 0.806124
0.107301 0.00906 0.191724
0.270477 0.616183 0.384273
0.703407 0.353075 0.154425
0.31269 0.884324 0.958532
0.207513 0.788468 0.273349
0.887132 0.165546 0.66596
0.0842113 0.973893 0.700633
0.841816 0.566669 0.476801
0.621882 0.528742 0.469384
0.75945 0.178201 0.171172
0.431843 0.320748 0.0741245
0.84447 0.771603 0.543921
0.979325 0.0726001 0.766669
0.26637 0.368599 0.219279
0.789038 0.14424 0.840017
0.661578 0.0590232 0.810982
0.627756 0.904982 0.748722
0.561121 0.836547 0.27805
0.54695 0.293617 0.968204
0.226196 0.0157382 0.325855
0.502509 0.0283629 0.559248
0.874283 0.704732 0.622968
0.955962 0.958279 0.824266
0.607742 0.487765 0.0133161
0.606262 0.989088 0.818101
0.340605 0.152047 0.784059
0.743938 0.967047 0.874842
0.555663 0.101284 0.483501
0.313695 0.512408 0.301702
0.861823 0.844327 0.315465
0.599581 0.430181 0.909093
0.187361 0.697728 0.970375
0.175276 0.201966 0.693723
0.779154 0.490549 0.609686
0.212682 0.476614 0.112072
0.321422 0.28478 0.444625
0.930126 0.181268 0.401388
0.615597 0.946557 0.133148
0.917877 0.0810538 0.480741
0.45459 0.209603 0.34746
0.454165 0.865211 0.955064
0.518926 0.8701 0.608172
0.349087 0.194194 0.413135
0.522824 0.0444434 0.145841
0.600184 0.225002 0.837326
0.326942 0.104834 0.0835306
0.937123 0.11802 0.14091
0.862666 0.254288 0.665951
0.816726 0.607181 0.957489
0.708883 0.112752 0.55841
0.718187 0.801957 0.0263213
0.718879 0.825681 0.746834
0.512349 0.458021 0.549419
0.704644 0.922914 0.617035
0.887834 0.701257 0.0683364
0.500828 0.286486 0.285175
0.355928 0.314733 0.57861
0.683602 0.268749 0.129763
0.0588087 0.575753 0.18613
0.00924799 0.927753 0.53714
0.0924482 0.842921 0.983203
0.448601 0.0424896 0.117546
0.381654 0.885523 0.148039
0.82399 0.0149763 0.457389
0.644397 0.0603795 0.614763
0.944404 0.16026 0.729611
0.609094 0.185116 0.00620341
0.00928445 0.532092 0.942779
0.644299 0.7143 0.493865
0.581889 0.126368 0.876821
0.760793 0.998199 0.297723
0.227018 0.125162 0.96421
0.780885 0.166325 0.552686
0.413768 0.151486 0.162073
0.96347 0.304964 0.941439
0.0756107 0.460803 0.129619
0.00478739 0.553766 0.113894
0.722025 0.698116 0.176333
0.941742 0.721043 0.29797
0.709234 0.73193 0.342226
0.375589 0.359107 0.616618
0.90041 0.173193 0.8752
0.0276532 0.660339 0.414439
0.791282 0.721198 0.480108
0.643864 0.501773 0.811518
0.476084 0.523156 0.250521
0.605043 0.302905 0.577284
0.169678 0.159469 0.41703
0.42682 0.268109 0.131597
0.0392105 0.0252318 0.27155
0.461853 0.726243 0.474872
0.904051 0.0352198 0.180661
0.338514 0.577496 0.852736
0.350202 0.267989 0.0618892
0.821303 0.379666 0.57155
0.983555 0.00159457 0.14545
0.779111 0.805127 0.769247
0.536999 0.978857 0.396185
0.601944 0.063369 0.409857
0.7225 0.238739 0.943828
0.686783 0.287575 0.768999
0.0831648 0.974774 0.0492853
0.933456 0.252854 0.757824
7.36994e-05 0.25424 0.749101
0.532336 0.114952 0.39363
0.375549 0.568162 0.667977
0.84083 0.497231 0.392022
0.143977 0.804823 0.71337
0.408677 0.518432 0.665183
0.164806 0.0271978 0.317504
0.595585 0.486606 0.692555
0.81969 0.488442 0.134267
0.850628 0.57499 0.739937
0.704665 0.968212 0.295307
0.705307 0.365676 0.395411
0.230595 0.34401 0.948297
0.292571 0.245991 0.583138
0.258036 0.473386 0.834176
0.2304 0.426691 0.61049
0.545629 0.974723 0.68037
0.739946 0.966956 0.414438
0.35538 0.0438624 0.184204
0.23719 0.183504 0.754784
0.535883 0.667634 0.820462
0.230774 0.325924 0.70836
0.392759 0.0292709 0.434955
0.908273 0.409022 0.332249
0.989525 0.644416 0.365998
0.10202 0.787849 0.708075
0.921916 0.217276 0.114924
0.724073 0.203396 0.176104
0.319807 0.816825 0.539537
0.0458504 0.463895 0.68398
0.538368 0.57245 0.224777
0.847739 0.561399 0.713246
0.981864 0.428199 0.881067
0.00728101 0.0334073 0.59028
0.311449 0.248277 0.277935
0.318403 0.728948 0.569196
0.789036 0.830197 0.842935
0.414644 0.421273 0.926266
0.661764 0.0804672 0.542187
0.356007 0.987435 0.0136554
0.612181 0.723623 0.288907
0.973642 0.859537 0.915653
0.0192321 0.569872 0.29465
0.849029 0.63285 0.538877
0.114588 0.540223 0.631904
0.955912 0.585051 0.967401
0.961606 0.6502 0.505908
0.466022 0.890379 0.0282567
0.113808 0.102072 0.756935
0.339651 0.637969 0.603783
0.385828 0.531568 0.645139
0.94095 0.575634 0.614368
0.0678558 0.952216 0.528082
0.801273 0.0502911 0.42091
0.256975 0.266976 0.791454
0.623867 0.439745 0.0105857
0.964928 0.962023 0.217552
0.0413464 0.530199 0.951411
0.910396 0.584663 0.303549
0.329961 0.897914 0.491784
0.131116 0.248425 0.276795
0.123547 0.463044 0.916051
0.668783 0.0724739 0.00549482
0.276248 0.362693 0.77675
0.967006 0.387567 0.68669
0.994902 0.745667 0.63619
0.0780749 0.323215 0.913392
0.201005 0.84359 0.696324
0.366324 0.529174 0.542806
0.714054 0.516556 0.133076
0.773455 0.406272 0.963094
0.283514 0.263079 0.333507
0.572317 0.89487 0.176282
0.279679 0.58168 0.454334
0.447323 0.820734 0.923878
0.481307 0.687352 0.801059
0.518366 0.294316 0.638085
0.585109 0.901563 0.052407
0.910131 0.534432 0.0156761
0.344702 0.724334 0.488433
0.980159 0.42261 0.326635
0.821672 0.547907 0.682327
0.805702 0.671428 0.422407
0.124796 0.580248 0.897433
0.418892 0.910725 0.503528
0.620842 0.832988 0.564597
0.0909693 0.980979 0.245849
0.710505 0.505113 0.478773
0.243941 0.722151 0.112788
0.990453 0.845374 0.534509
0.424553 0.286465 0.501591
0.879417 0.275006 0.500537
0.23455 0.337149 0.190261
0.990539 0.571497 0.732815
0.0982499 0.366118 0.89264
0.0844383 0.165483 0.625418
0.622789 0.838227 0.935493
0.141986 0.259374 0.427461
0.000903286 0.0698143 0.226491
0.481102 0.251523 0.876682
0.324273 0.924623 0.974787
0.449862 0.227129 0.291666
0.776334 0.27335 0.380583
0.478576 0.575111 0.9961
0.23221 0.353424 0.262891
0.361113 0.100805 0.35981
0.887865 0.29859 0.371935
0.944474 0.728379 0.516739
0.777193 0.12318 0.46449
0.118236 0.233618 0.141867
0.361801 0.381639 0.947309
0.264126 0.472429 0.811379
0.815618 0.750343 0.287834
0.494972 0.186212 0.1884
0.435841 0.738592 0.526584
0.886683 0.830909 0.0316054
0.568419 0.609161 0.961575
0.0232366 0.531104 0.204781
0.0536629 0.587489 0.772604
0.774865 0.0302884 0.406946
0.0445096 0.247839 0.192881
0.215183 0.339118 0.277418
0.96228 0.352407 0.894173
0.181042 0.763747 0.0613455
0.462761 0.00551044 0.810291
0.950486 0.0351074 0.933846
0.773854 0.358862 0.908877
0.296257 0.409295 0.0967113
0.656939 0.0296008 0.484905
0.683192 0.821238 0.149941
0.75409 0.719077 0.559571
0.584645 0.0912707 0.600471
0.381522 0.867581 0.313099
0.576595 0.426571 0.876262
0.253917 0.0788024 0.748656
0.412897 0.589098 0.0263893
0.95211 0.877618 0.623868
0.0170298 0.377976 0.978797
0.68133 0.160988 0.460597
0.966738 0.534708 0.0246145
0.619772 0.271217 0.098846
0.402908 0.558523 0.0170407
0.559047 0.511203 0.793908
0.42355 0.55345 0.742009
0.897146 0.380035 0.601633
0.694611 0.0432707 0.800761
0.37743 0.670239 0.471664
0.702339 0.724331 0.191571
0.662174 0.851323 0.235567
0.758183 0.633825 0.955126
0.260247 0.154278 0.312121
0.257959 0.756833 0.733109
0.669685 0.216379 0.861807
0.956572 0.531606 0.649373
0.500692 0.283558 0.286148
0.313421 0.19085 0.901924
0.858398 0.461639 0.367251
0.939078 0.222373 0.553542
0.0544982 0.191202 0.604027
0.662184 0.580996 0.869601
0.993405 0.763862 0.465092
0.833935 0.120387 0.683271
0.518338 0.178066 0.972934
0.338437 0.615423 0.878594
0.506689 0.115138 0.818739
0.353214 0.983067 0.883825
0.853449 0.356253 0.75713
0.986329 0.526322 0.470732
0.0146658 0.700204 0.858478
0.247457 0.315025 0.500677
0.0720802 0.0896425 0.421111
0.261219 0.406037 0.454386
0.976273 0.94426 0.13973
0.882586 0.0802067 0.507635
0.16391 0.365892 0.74334
0.424505 0.806951 0.718816
0.942839 0.534156 0.802148
0.322907 0.345746 0.40051
0.410916 0.103253 0.519099
0.0968032 0.889762 0.0618448
0.449694 0.284694 0.154869
0.783837 0.714932 0.145948
0.632766 0.792555 0.773332
0.0922796 0.685513 0.716024
0.862166 0.508044 0.461094
0.965116 0.796512 0.558731
0.330617 0.845238 0.455436
0.0926852 0.454904 0.871968
0.448282 0.0143491 0.611485
0.99583 0.817249 0.617238
0.914399 0.813582 0.498639
0.59122 0.731293 0.846426
0.0581764 0.774804 0.447503
0.660799 0.764633 0.539502
0.158515 0.409527 0.076873
0.689301 0.953706 0.795253
0.389786 0.584291 0.304201
0.541046 0.300727 0.738325
0.259342 0.96402 0.661949
0.0687778 0.0107778 0.997046
0.220506 0.312563 0.208414
0.928102 0.652013 0.504386
0.557651 0.317873 0.614175
0.4196 0.199228 0.656605
0.373841 0.785066 0.415395
0.508271 0.787466 0.447878
0.966221 0.793029 0.82643
0.95392 0.388851 0.58008
0.693592 0.673458 0.952937
0.288349 0.291362 0.918004
0.799306 0.203357 0.570047
0.745764 0.353036 0.434382
0.575397 0.467109 0.753042
0.00593875 0.434633 0.337581
0.609164 0.775958 0.0761452
0.15806 0.665082 0.738402
0.588202 0.982803 0.499461
0.136292 0.686291 0.602076
0.590421 0.545854 0.939096
0.129156 0.0731973 0.154117
0.24499 0.592946 0.612425
0.232602 0.489225 0.482062
0.453111 0.803545 0.471693
0.758365 0.166481 0.531967
0.824105 0.177717 0.464922
0.609079 0.184775 0.756766
0.0789962 0.946416 0.468221
0.336123 0.116807 0.432597
0.659804 0.0944873 0.306269
0.836018 0.646181 0.206373
0.16091 0.904485 0.28702
0.1795 0.999964 0.309192
0.12474 0.461758 0.434345
0.926802 0.134205 0.0911364
0.0929787 0.904287 0.449369
0.150607 0.59383 0.537623
0.198407 0.603038 0.340231
0.238371 0.510401 0.291649
0.22214 0.879722 0.155763
0.28059 0.386138 0.273638
0.210711 0.771146 0.329016
0.112513 0.540895 0.125488
0.35752 0.881827 0.369161
0.632509 0.514626 0.137725
0.64907 0.856035 0.0932125
0.75368 0.690211 0.866661
0.104092 0.305695 0.694291
0.022018 0.734076 0.857979
0.453304 0.43433 0.278469
0.00505187 0.186304 0.979864
0.867286 0.266505 0.963749
0.367713 0.297585 0.152808
0.901611 0.986992 0.327411
0.70343 0.335303 0.104991
0.392692 0.55157 0.123017
0.818273 0.497363 0.234383
0.59276 0.793259 0.327624
0.701476 0.427859 0.964051
0.77094 0.356351 0.017748
0.65752 0.197872 0.121879
0.931776 0.999949 0.269889
0.301769 0.164989 0.457685
0.865844 0.701506 0.846332
0.228482 0.730456 0.918527
0.281416 0.690654 0.400657
0.290227 0.969623 0.348633
0.10785 0.388589 0.447678
0.752211 0.949914 0.817057
0.930941 0.47506 0.719317
0.30905 0.0695871 0.365474
0.697915 0.274622 0.861406
0.790773 0.194043 0.330837
0.825303 0.243938 0.331602
0.343067 0.801042 0.0370303
0.073787 0.578452 0.397112
0.632885 0.266461 0.909583
0.760942 0.0677462 0.783905
0.969582 0.942436 0.735484
0.123594 0.576077 0.284233
0.970213 0.717486 0.610766
0.695088 0.437979 0.372737
0.9358 0.331927 0.0414361
0.40084 0.79034 0.648468
0.962171 0.106202 0.911546
0.368849 0.474003 0.428482
0.116452 0.247796 0.742272
0.0230075 0.133888 0.0252102
0.857388 0.617325 0.169929
0.768772 0.966801 0.93456
0.921548 0.00781022 0.589013
0.256633 0.564647 0.31803
0.153667 0.444494 0.495096
0.989766 0.0423879 0.301155
0.851894 0.659695 0.826683
0.660291 0.759536 0.492922
0.204878 0.810004 0.567821
0.139505 0.804894 0.958586
0.346164 0.293512 0.0817752
0.664491 0.958962 0.135993
0.48516 0.0982382 0.0341099
0.664501 0.867687 0.337571
0.875765 0.117053 0.237961
0.901607 0.50851 0.608192
0.0380182 0.12839 0.0557908
0.905001 0.134795 0.849673
0.351035 0.800597 0.365044
0.267684 0.0936607 0.280707
0.47148 0.817509 0.452515
0.971436 0.541633 0.0249456
0.415367 0.688899 0.234292
0.69863 0.503697 0.0257378
0.774353 0.560374 0.0824935
0.475214 0.287293 0.879682
0.284927 0.941687 0.546133
0.323614 0.813545 0.6974
0.413962 0.629618 0.778584
0.851558 0.816413 0.166077
0.82839 0.0586291 0.200171
0.622927 0.114693 0.603348
0.307966 0.429467 0.315152
0.0701736 0.500759 0.963599
0.611783 0.300032 0.95615
0.389237 0.697518 0.634113
0.952911 0.914603 0.148004
0.0856859 0.809642 0.904943
0.492974 0.690761 0.0697883
0.219804 0.149376 0.601161
0.19754 0.0598463 0.302207
0.677212 0.577864 0.330725
0.833479 0.276269 0.260548
0.559947 0.478216 0.445973
0.155786 0.504646 0.259019
0.39218 0.73357 0.936863
0.773863 0.405634 0.593033
0.746498 0.414221 0.360248
0.135243 0.736261 0.838509
0.316584 0.783508 0.610213
0.784083 0.411337 0.747576
0.408509 0.088758 0.550579
